# .PCD v0.7 - Point Cloud Data file format
VERSION 0.7
FIELDS x y z rgb
SIZE 4 4 4 4
TYPE F F F F
COUNT 1 1 1 1
WIDTH 1004
HEIGHT 1
VIEWPOINT 0 0 0 1 0 0 0
POINTS 1004
DATA ascii
0.42280826 -0.4423368 0.73726892 2.8671435e-39
0.4231663 -0.43939149 0.73670465 2.8710966e-39
0.42352501 -0.43644071 0.7361393 2.782854e-39
0.42389062 -0.43337628 0.73637009 2.7810562e-39
0.42419395 -0.43093547 0.73653889 2.7799786e-39
0.42466688 -0.42729247 0.73676533 2.8714553e-39
0.42504975 -0.42435145 0.73616427 2.7832128e-39
0.42544183 -0.42128688 0.73651659 2.7803373e-39
0.42568403 -0.41849026 0.73637903 2.7814163e-39
0.42585829 -0.41627178 0.73650962 2.7814163e-39
0.42603821 -0.41434479 0.73703527 2.8714553e-39
0.42616475 -0.41246146 0.73683727 2.8732518e-39
0.42637596 -0.40932003 0.736507 2.7839316e-39
0.42658859 -0.40617695 0.73617429 2.7860868e-39
0.42590478 -0.4046779 0.73612887 6.5574434e-39
0.4268401 -0.40320405 0.73658687 2.7835729e-39
0.42703992 -0.40047351 0.73643577 2.7846491e-39
0.42723528 -0.39761585 0.73637253 2.7846505e-39
0.42744476 -0.39490187 0.73665071 2.7842918e-39
0.42769533 -0.39155516 0.73686504 2.7846491e-39
0.42790079 -0.38839152 0.73654491 2.786447e-39
0.42810646 -0.385225 0.73622435 2.7882434e-39
0.42827111 -0.38268942 0.7359677 2.7889623e-39
0.42853245 -0.3794834 0.7365272 2.7860868e-39
0.42871493 -0.37660342 0.73648494 2.7860868e-39
0.42884141 -0.37402672 0.73628825 2.7871644e-39
0.42901474 -0.37240469 0.73722786 2.7853694e-39
0.42884663 -0.37109533 0.73507094 2.7900399e-39
0.4290885 -0.37045193 0.73711336 2.7864456e-39
0.42918688 -0.36784723 0.73696065 2.7878833e-39
0.42982635 -0.36445794 0.73693407 2.7878833e-39
0.43061775 -0.36150891 0.73619068 2.7896798e-39
0.43166539 -0.35887453 0.736341 2.8822397e-39
0.4325923 -0.35797706 0.73732471 3.1591924e-39
0.43194985 -0.35670668 0.73509628 2.7904e-39
0.43356842 -0.35518932 0.73674184 3.0691533e-39
0.43408987 -0.35272706 0.73582536 3.0702309e-39
0.43566814 -0.35230744 0.73742408 3.0691533e-39
0.43481869 -0.35083926 0.73551065 3.0702309e-39
0.43623024 -0.34967571 0.73645031 3.0698708e-39
0.43802756 -0.34850055 0.73783731 3.161349e-39
0.43736839 -0.34655622 0.73583251 2.9712054e-39
0.43883985 -0.34594482 0.73720562 3.0673569e-39
0.44130069 -0.3450824 0.73528367 2.8599577e-39
0.44114995 -0.34415221 0.73791516 2.8599577e-39
0.4445284 -0.34408343 0.73763859 2.8599577e-39
0.44790056 -0.34438506 0.73620534 3.0443559e-39
0.45111027 -0.34413126 0.73624653 3.0443559e-39
0.45482358 -0.34368548 0.7359789 3.1365544e-39
0.45744652 -0.34350115 0.73653674 3.3209498e-39
0.40112025 -0.31597158 0.73601776 6.7325665e-39
0.45353058 0.21759179 0.73776817 5.1531952e-39
0.48735178 0.23807782 0.73529857 3.9575443e-39
0.41677061 -0.49969912 0.73958319 2.8599577e-39
0.41685623 -0.4964866 0.73944676 2.8599577e-39
0.41692469 -0.49391562 0.73933762 2.8599577e-39
0.41697603 -0.49198681 0.73925573 2.8599577e-39
0.41715756 -0.49006012 0.73977154 2.8599577e-39
0.41733283 -0.48749438 0.7401365 2.8599577e-39
0.41747794 -0.48444885 0.73942232 2.8599577e-39
0.41792032 -0.48167863 0.73956454 2.8599577e-39
0.46011886 -0.48016188 0.73935139 3.3209498e-39
0.41849557 -0.47811791 0.73925537 2.8599577e-39
0.41899437 -0.47550964 0.73967022 2.8599577e-39
0.41937584 -0.47303492 0.73966968 2.8599577e-39
0.41987541 -0.4700346 0.73948312 2.8599577e-39
0.42014033 -0.46835524 0.73906398 2.8599577e-39
0.42052221 -0.46626633 0.73966622 2.8599577e-39
0.42084259 -0.4639819 0.7391603 2.8599577e-39
0.42119762 -0.4605248 0.73980743 2.8599577e-39
0.42142016 -0.45745048 0.73945665 2.8599577e-39
0.43293792 -0.45826054 0.7409147 2.8599577e-39
0.42164299 -0.45437256 0.73910546 2.8599577e-39
0.42186603 -0.45129153 0.73875391 2.8599577e-39
0.42208752 -0.44834664 0.73961014 2.8603164e-39
0.42237797 -0.44548526 0.74035925 2.8599577e-39
0.4227345 -0.44255209 0.7397995 2.8599577e-39
0.42309162 -0.43961415 0.7392388 2.8599577e-39
0.42348891 -0.4364593 0.73921716 2.8603164e-39
0.42386675 -0.43369484 0.73982954 2.8603164e-39
0.42428592 -0.43056014 0.73977625 2.8599577e-39
0.42466721 -0.42763105 0.73917979 2.8599577e-39
0.42512524 -0.42428267 0.73966706 2.8599577e-39
0.42543086 -0.42199174 0.73959142 2.8603164e-39
0.4258711 -0.41856119 0.73970795 2.8599577e-39
0.42611343 -0.41546646 0.73933029 2.8599577e-39
0.42632404 -0.41233394 0.73900199 2.8603164e-39
0.42659301 -0.40945089 0.73978549 2.8603164e-39
0.42679858 -0.40661755 0.7397064 2.861394e-39
0.42699102 -0.40382385 0.73916662 2.8628317e-39
0.4273847 -0.40039936 0.73975867 2.8599577e-39
0.42763242 -0.39729357 0.73937404 2.8603164e-39
0.42788315 -0.39432719 0.73978573 2.8603164e-39
0.42803222 -0.39154834 0.73971474 2.8610353e-39
0.42824918 -0.38835624 0.73985916 2.8617541e-39
0.4283672 -0.38547176 0.73943579 2.8635506e-39
0.42850453 -0.38260251 0.73898238 2.8657058e-39
0.42879272 -0.37938794 0.73997945 2.8599577e-39
0.42895854 -0.37618575 0.73972309 2.8606765e-39
0.42912313 -0.37365264 0.7394684 2.8621129e-39
0.42930198 -0.37045756 0.73919183 2.8649869e-39
0.42983598 -0.36747971 0.73980796 2.9553917e-39
0.43109354 -0.36448598 0.73951685 3.0486691e-39
0.43282992 -0.36309373 0.74096227 2.8599577e-39
0.43148547 -0.36152554 0.73822641 3.1516464e-39
0.43282211 -0.36148506 0.73977613 3.2327031e-39
0.43383032 -0.35899338 0.73943204 3.0537012e-39
0.43505865 -0.35753256 0.73995405 3.2352184e-39
0.43455204 -0.35587716 0.73832822 3.1570358e-39
0.43623805 -0.35509866 0.73987013 3.0544173e-39
0.43705148 -0.35273242 0.73931897 3.0608857e-39
0.4381417 -0.35186148 0.7400611 3.1487723e-39
0.43763673 -0.35019562 0.73843062 3.1595511e-39
0.43910316 -0.34958401 0.73980433 3.0608871e-39
0.44010317 -0.34656051 0.7390933 3.0655576e-39
0.44137457 -0.34558982 0.73997122 3.1563183e-39
0.46041232 -0.34568849 0.73939466 3.966699e-39
0.4422501 -0.34422168 0.74025041 2.9665292e-39
0.44441092 -0.34319025 0.74020481 2.8599577e-39
0.44788593 -0.3431865 0.73981595 2.8599577e-39
0.45138705 -0.34318274 0.73942411 2.8599577e-39
0.45532969 -0.34313306 0.73961484 3.4131483e-39
0.45794892 -0.34413135 0.73938334 3.966699e-39
0.41733479 -0.49961463 0.74254131 2.8599577e-39
0.41736236 -0.49643487 0.74201679 2.8599577e-39
0.417476 -0.49354509 0.74207711 2.8599577e-39
0.41763258 -0.49080282 0.74243027 2.8599577e-39
0.41780737 -0.48742074 0.74275476 2.8599577e-39
0.41804147 -0.48439798 0.74238443 2.8599577e-39
0.41862255 -0.4815256 0.74290621 2.8599577e-39
0.41887841 -0.47861558 0.74202186 2.8599577e-39
0.41946054 -0.47573915 0.74254513 2.8599577e-39
0.42006946 -0.47404671 0.74398398 2.8599577e-39
0.41979891 -0.4728303 0.7420119 2.8599577e-39
0.42018247 -0.47189566 0.74300718 2.8599577e-39
0.42069021 -0.46943918 0.74238586 3.1365544e-39
0.42070231 -0.46676168 0.74219018 2.8599577e-39
0.42108157 -0.46330318 0.74239475 2.8599577e-39
0.42125845 -0.46018466 0.74211705 2.8599577e-39
0.43761349 -0.46109709 0.74355686 2.786447e-39
0.42147794 -0.45720124 0.74257153 2.8599577e-39
0.42166406 -0.45450687 0.74243927 2.8599577e-39
0.42185861 -0.45169669 0.74237406 2.8599577e-39
0.42205754 -0.44873667 0.74326199 2.8599577e-39
0.42231464 -0.44570279 0.74285984 2.8599577e-39
0.42535982 -0.44566572 0.74184376 3.2291129e-39
0.42269221 -0.44280186 0.7422691 2.8599577e-39
0.42299485 -0.44047773 0.74179578 2.8599577e-39
0.42322779 -0.43889219 0.74262935 2.8599577e-39
0.42350206 -0.43680707 0.74260074 2.8599577e-39
0.42390737 -0.43380687 0.74276823 2.8599577e-39
0.42436311 -0.43030629 0.74205798 2.8599577e-39
0.42474368 -0.42755181 0.74266183 2.8599577e-39
0.42508626 -0.4250055 0.74272823 2.8599577e-39
0.42558169 -0.42128506 0.74255776 2.8599577e-39
0.42588717 -0.41893888 0.74208349 2.8599577e-39
0.42604011 -0.41776425 0.74184608 2.8599577e-39
0.4263266 -0.41527113 0.74235857 2.8599577e-39
0.42654079 -0.41245604 0.74226588 2.8599577e-39
0.42680979 -0.40958223 0.74304646 2.8599577e-39
0.42706028 -0.40649712 0.74265915 2.8599577e-39
0.4273349 -0.4034327 0.74223441 2.8599577e-39
0.4277496 -0.40004042 0.74278837 2.8599577e-39
0.42797488 -0.39727998 0.74220145 2.8599577e-39
0.42825115 -0.39480996 0.74241287 2.8599577e-39
0.4670352 -0.39327815 0.7413497 4.7050109e-39
0.42857346 -0.3916986 0.74271363 2.8599577e-39
0.42872903 -0.38850051 0.74247396 2.8599577e-39
0.42887449 -0.38528988 0.74224967 2.8599577e-39
0.42899096 -0.38271987 0.74207032 2.8599577e-39
0.42923915 -0.38236627 0.74328041 2.8599577e-39
0.42934251 -0.37957531 0.74296248 2.8599577e-39
0.42941967 -0.37633681 0.7423659 2.8599577e-39
0.42958766 -0.37345594 0.74234653 2.8599577e-39
0.42983371 -0.37064806 0.74220753 2.8599577e-39
0.43068963 -0.36713055 0.74244636 2.8599577e-39
0.43112972 -0.36488503 0.74356246 2.8599577e-39
0.4325105 -0.36414719 0.74145061 2.8599577e-39
0.43402568 -0.36132303 0.74152803 2.8599577e-39
0.43589586 -0.35820442 0.74202812 2.8599577e-39
0.43730515 -0.35531789 0.74246025 2.8599577e-39
0.43915504 -0.35251877 0.74262321 2.8603164e-39
0.44039047 -0.34963232 0.7420435 2.8621129e-39
0.44117361 -0.34869212 0.74265563 2.8599577e-39
0.4616425 -0.34821719 0.74354964 3.966699e-39
0.46362433 -0.34877309 0.74190748 3.966699e-39
0.46610928 -0.35034674 0.7419256 3.966699e-39
0.44216222 -0.34675756 0.74260485 2.8613954e-39
0.45803761 -0.34546754 0.74241728 3.966699e-39
0.46115124 -0.34720737 0.74189031 3.966699e-39
0.44339147 -0.3443284 0.74251586 2.862473e-39
0.44465765 -0.34280109 0.74301022 2.8599577e-39
0.4483808 -0.34242475 0.74265182 2.8599577e-39
0.45187646 -0.34241813 0.74227142 2.8599577e-39
0.45404887 -0.34305727 0.74266237 3.966699e-39
0.45623964 -0.34409738 0.74185544 3.966699e-39
0.45075816 -0.29951924 0.74177283 2.8621143e-39
0.48405436 0.24176764 0.74270189 5.9934362e-39
0.41777772 -0.49947768 0.74519742 2.8599577e-39
0.41799459 -0.49624854 0.74581051 2.8599577e-39
0.41810796 -0.49336714 0.74587083 2.8599577e-39
0.41822129 -0.49048582 0.74593133 2.8599577e-39
0.41829896 -0.4873713 0.74533159 2.8599577e-39
0.47777218 -0.48893145 0.74407279 2.7673865e-39
0.41869244 -0.48446068 0.74519044 2.8599577e-39
0.41936502 -0.48120609 0.74588537 2.8599577e-39
0.47465074 -0.48248199 0.74430448 5.3503888e-39
0.41966814 -0.47868013 0.74556875 2.8599577e-39
0.43104848 -0.4774994 0.74521106 2.8599577e-39
0.41986656 -0.47578928 0.74430257 2.8599577e-39
0.42015323 -0.47569346 0.74624079 2.8599577e-39
0.42042956 -0.47271726 0.7458086 2.8599577e-39
0.4689098 -0.47209269 0.74504524 5.5347436e-39
0.42070636 -0.46973678 0.74537563 2.8599577e-39
0.4210771 -0.46628153 0.74559039 2.8599577e-39
0.42127317 -0.46361145 0.74544281 2.8599577e-39
0.421482 -0.46045741 0.74559391 2.8599577e-39
0.46924025 -0.45960653 0.74692529 5.9035177e-39
0.42162475 -0.45767865 0.74513245 2.8599577e-39
0.42186433 -0.45477074 0.74595195 2.8599577e-39
0.42206779 -0.45168719 0.74563485 2.8599577e-39
0.4223007 -0.44863465 0.74527192 2.8599577e-39
0.42266417 -0.44557801 0.74565864 2.8599577e-39
0.42286035 -0.44262484 0.74439979 2.8599577e-39
0.42312834 -0.44256234 0.74636674 2.8599577e-39
0.42330346 -0.4400014 0.74530011 2.8599577e-39
0.42373896 -0.4366014 0.74541873 2.8599577e-39
0.42420864 -0.43329173 0.74588013 2.8599577e-39
0.42446867 -0.43061715 0.7452389 2.8599577e-39
0.47351152 -0.43137813 0.74567169 8.2076559e-39
0.42492405 -0.42758742 0.74596328 2.8599577e-39
0.42523113 -0.42459163 0.74548829 2.8599577e-39
0.42565113 -0.42146719 0.74543357 2.8599577e-39
0.42593616 -0.41952848 0.74558783 2.8599577e-39
0.42612734 -0.41801488 0.74568957 2.8599577e-39
0.42634645 -0.41602528 0.74535155 2.8599577e-39
0.42674947 -0.41257039 0.74552423 2.8599577e-39
0.42719781 -0.40922618 0.74602222 2.8599577e-39
0.42737919 -0.40643826 0.74550521 2.8599577e-39
0.42769414 -0.4033688 0.74549663 2.8599577e-39
0.4279469 -0.40071496 0.74526685 2.8599577e-39
0.4283329 -0.39723229 0.74546748 2.8599577e-39
0.42860794 -0.39416608 0.74504519 2.8599577e-39
0.42886558 -0.39211202 0.74544162 2.8599577e-39
0.42910546 -0.39107618 0.74665844 2.8599577e-39
0.42899364 -0.38986641 0.74445301 2.8599577e-39
0.42921355 -0.38829237 0.74530458 2.8599577e-39
0.42942095 -0.38546175 0.74522489 2.8599577e-39
0.42970532 -0.38230333 0.74574101 2.8599577e-39
0.42982179 -0.3797386 0.74556291 2.8599577e-39
0.43013117 -0.37646872 0.74568337 2.8599577e-39
0.43058014 -0.37364516 0.74582869 2.8599577e-39
0.43078318 -0.37052578 0.74504364 2.8599577e-39
0.43124586 -0.36770922 0.74516952 2.8599577e-39
0.4320659 -0.36606723 0.74688721 2.8599577e-39
0.43168947 -0.36455485 0.74508768 2.8599577e-39
0.43224835 -0.36422527 0.74661028 2.8599577e-39
0.43193281 -0.36209458 0.744717 2.8599577e-39
0.43249172 -0.3617669 0.74624079 2.8599577e-39
0.43273544 -0.35930565 0.74587083 2.8599577e-39
0.44002813 -0.35243571 0.74436873 2.8599577e-39
0.44156128 -0.34958136 0.74445069 2.8599577e-39
0.4432776 -0.34667361 0.7448591 2.8599577e-39
0.44414413 -0.34546369 0.74534965 2.8599577e-39
0.45942825 -0.34716153 0.74435472 3.966699e-39
0.44534731 -0.34333923 0.74554139 2.8599577e-39
0.45236593 -0.34302771 0.74510527 3.966699e-39
0.45454359 -0.34406376 0.74430835 3.966699e-39
0.44656932 -0.34187162 0.74649614 2.8599577e-39
0.44887382 -0.3416658 0.7454772 2.8599577e-39
0.45020068 -0.34199756 0.74589765 3.966699e-39
0.50344795 -0.29704174 0.74691278 3.966699e-39
0.4181869 -0.49930039 0.74789089 2.8599577e-39
0.46256453 -0.49823803 0.74927658 5.0734221e-39
0.41844949 -0.49669802 0.7489059 2.8599577e-39
0.41856828 -0.49355009 0.74871999 2.8599577e-39
0.46543318 -0.49355572 0.74757612 4.7971771e-39
0.4186613 -0.49036771 0.7485745 2.8599577e-39
0.46456301 -0.49048814 0.74879789 4.7971897e-39
0.41901785 -0.48723218 0.74861002 2.8599577e-39
0.41941491 -0.48442864 0.74882001 2.8599577e-39
0.41966125 -0.48180887 0.74819821 2.8599577e-39
0.41995811 -0.47963446 0.74892265 2.8599577e-39
0.42012331 -0.47785556 0.74866509 2.8599577e-39
0.42034391 -0.47548151 0.74832141 2.8599577e-39
0.42068112 -0.47231019 0.74838877 2.8599577e-39
0.42100987 -0.46941423 0.74870712 2.8599577e-39
0.46710598 -0.46804953 0.74756849 4.9819313e-39
0.42123312 -0.4667477 0.74812269 2.8599577e-39
0.42153129 -0.46325293 0.74884623 2.8599577e-39
0.42170742 -0.46015173 0.74857283 2.8599577e-39
0.42187876 -0.45770457 0.74830675 2.8599577e-39
0.42222089 -0.45463437 0.74872339 2.8599577e-39
0.42250824 -0.45157814 0.74875206 2.8599577e-39
0.42268592 -0.44854563 0.74800265 2.8599577e-39
0.46991664 -0.44820708 0.74831867 5.9031898e-39
0.42299026 -0.44668007 0.74895424 2.8599577e-39
0.42315191 -0.44487613 0.74870425 2.8599577e-39
0.46974835 -0.44595051 0.74855232 6.0879356e-39
0.42339543 -0.44250041 0.74832761 2.8599577e-39
0.46905667 -0.44246584 0.74951279 5.8109984e-39
0.42380667 -0.43950376 0.74863893 2.8599577e-39
0.42416495 -0.43651694 0.74855947 2.8599577e-39
0.42444739 -0.43393192 0.74828178 2.8599577e-39
0.45047066 -0.43473065 0.74725264 2.952519e-39
0.42488256 -0.43053547 0.74840099 2.8599577e-39
0.42538142 -0.4275628 0.74905241 2.8599577e-39
0.42562491 -0.42456952 0.74820465 2.8599577e-39
0.42574149 -0.42216134 0.74707752 2.8599577e-39
0.42612791 -0.42159852 0.74885243 2.8599577e-39
0.47419661 -0.42133999 0.74706233 6.9173039e-39
0.42660069 -0.4182345 0.74891472 2.8599577e-39
0.48629156 -0.41785458 0.74996257 4.7050095e-39
0.42689395 -0.41564265 0.74862272 2.8599577e-39
0.4273769 -0.41276485 0.74835593 2.8599577e-39
0.42797112 -0.40954241 0.7483927 2.8599577e-39
0.47472432 -0.40907365 0.74866641 6.7332868e-39
0.42849484 -0.40632018 0.74901104 2.8599577e-39
0.47429299 -0.4065783 0.74925876 6.3645127e-39
0.42857221 -0.40342733 0.74865663 2.8599577e-39
0.45748743 -0.40461016 0.74833435 8.1143967e-39
0.47400582 -0.40491748 0.74965304 6.0879314e-39
0.42855221 -0.40063822 0.74809599 2.8599577e-39
0.42903942 -0.40010601 0.74912572 2.8599577e-39
0.42857137 -0.39721888 0.74747527 2.8599577e-39
0.42916155 -0.39756235 0.74893951 2.8599577e-39
0.47736895 -0.39735651 0.74736977 6.5488857e-39
0.42877531 -0.39475411 0.74716336 2.8599577e-39
0.4293144 -0.39438087 0.74870664 2.8599577e-39
0.47678858 -0.39403325 0.74816382 6.4563397e-39
0.47707856 -0.39569384 0.74776703 6.4566957e-39
0.42975107 -0.39169383 0.7492221 2.8599577e-39
0.47635436 -0.39154658 0.74875796 6.2719555e-39
0.42990518 -0.38850996 0.74898773 2.8599577e-39
0.47577757 -0.38893634 0.74954706 5.9953784e-39
0.43009716 -0.38536096 0.74869573 2.8599577e-39
0.43022212 -0.38249937 0.74826914 2.8599577e-39
0.43055192 -0.37943473 0.74824041 2.8599605e-39
0.43120545 -0.37659651 0.74866503 2.8599591e-39
0.43148482 -0.37367585 0.7483598 2.8599591e-39
0.43201429 -0.37319523 0.7493279 3.0443545e-39
0.43164104 -0.37035868 0.74753213 2.8599577e-39
0.4321928 -0.37068829 0.74905795 3.0443545e-39
0.43188372 -0.36790746 0.74716371 2.8599577e-39
0.43282753 -0.3675102 0.74927747 2.9521561e-39
0.43309143 -0.36440775 0.74887896 2.9521561e-39
0.43335575 -0.36130166 0.7484799 2.9521561e-39
0.43355435 -0.35848254 0.74794376 2.8599591e-39
0.43451014 -0.35548723 0.7490983 2.9521561e-39
0.47301 -0.35612845 0.74869782 4.704648e-39
0.43508947 -0.35224378 0.74940562 3.0443545e-39
0.43639296 -0.35057586 0.74980515 2.8599577e-39
0.43839097 -0.34883904 0.74917418 2.8599577e-39
0.4400501 -0.34746405 0.74905825 2.8599577e-39
0.44191995 -0.34599593 0.74942285 2.8599577e-39
0.44373834 -0.34432584 0.74830574 2.8599577e-39
0.44548184 -0.34327477 0.74926722 3.32131e-39
0.44773084 -0.34264803 0.74949622 3.8744992e-39
0.45069051 -0.34221631 0.74988097 3.8744992e-39
0.44829503 -0.34176326 0.74867517 3.5057068e-39
0.41902941 -0.49966413 0.75155103 2.8599577e-39
0.39935243 -0.49746671 0.75107205 2.8599577e-39
0.4191235 -0.49649143 0.7514047 2.8599577e-39
0.41921759 -0.4933174 0.75125831 2.8599577e-39
0.46044773 -0.49372056 0.75225967 5.1660003e-39
0.41925254 -0.49044409 0.75096768 2.8599577e-39
0.40149611 -0.48690504 0.75186914 2.7860882e-39
0.41960818 -0.48759556 0.75124156 2.8599577e-39
0.46369576 -0.48743105 0.75001544 4.9815908e-39
0.41989541 -0.48437744 0.75138593 2.8599577e-39
0.42048988 -0.48465642 0.75282168 2.8599577e-39
0.46288005 -0.48444092 0.75116086 5.0737977e-39
0.41998386 -0.48250973 0.75124854 2.8599577e-39
0.42035502 -0.48109335 0.75185215 2.8599577e-39
0.46225783 -0.48098865 0.75203443 5.1660003e-39
0.42057467 -0.47835225 0.75174761 2.8599577e-39
0.46187586 -0.47849923 0.75257069 5.1660017e-39
0.42069364 -0.47528878 0.75109118 2.8599577e-39
0.46162158 -0.47684211 0.75292772 5.1660017e-39
0.42095247 -0.47284773 0.75131941 2.8599577e-39
0.42153007 -0.46940356 0.75215548 3.0443573e-39
0.42180559 -0.46659082 0.7519654 3.0443573e-39
0.42196819 -0.46348348 0.75171423 2.9521589e-39
0.46449059 -0.46383637 0.75122714 5.1659933e-39
0.42215449 -0.46040168 0.75142658 2.9521589e-39
0.46361184 -0.46082318 0.75245631 5.2581973e-39
0.42229223 -0.45762998 0.75097787 2.9521575e-39
0.4637146 -0.45749402 0.75231266 5.2581973e-39
0.42266575 -0.45452499 0.75181699 2.9521561e-39
0.42348471 -0.45376864 0.75291014 3.1365544e-39
0.46381736 -0.45416343 0.75216877 5.2581973e-39
0.46673843 -0.45488054 0.75041211 5.2585547e-39
0.42289206 -0.45148316 0.7514683 2.8599577e-39
0.42359802 -0.45125672 0.75273621 3.1365544e-39
0.46389961 -0.45149782 0.75205374 5.2581973e-39
0.46684238 -0.45153379 0.75026721 5.3503902e-39
0.42335916 -0.44856399 0.75169104 2.9521575e-39
0.46398196 -0.44883123 0.75193864 5.2581973e-39
0.46694636 -0.44818565 0.75012219 5.3503902e-39
0.42364734 -0.44551244 0.75171864 2.9521561e-39
0.46399501 -0.44609156 0.75192034 5.2581973e-39
0.46674913 -0.44521612 0.75039715 5.5347758e-39
0.4237929 -0.44244212 0.75102341 2.8599577e-39
0.46343842 -0.44276142 0.7526989 5.2581987e-39
0.46623588 -0.4426139 0.75111252 5.4425844e-39
0.42427912 -0.43946591 0.75169057 2.8599577e-39
0.4657239 -0.4400183 0.75182605 5.2581973e-39
0.46836713 -0.43899176 0.75047022 5.5347772e-39
0.42482269 -0.43625915 0.75203305 2.8599577e-39
0.46653205 -0.4369103 0.75186241 5.2581973e-39
0.42503992 -0.43355432 0.75146466 2.8599577e-39
0.46733665 -0.43380031 0.75190115 5.2581973e-39
0.42542091 -0.43059415 0.75135171 2.8599577e-39
0.46669811 -0.43039832 0.75278771 5.1660017e-39
0.42587548 -0.42764592 0.75159842 2.8599577e-39
0.42629078 -0.42453554 0.75155133 2.8599577e-39
0.46878916 -0.42463475 0.75220478 5.0741648e-39
0.42671198 -0.42172879 0.75173128 2.8599577e-39
0.46852106 -0.42160681 0.75257564 5.1663618e-39
0.42695418 -0.41903228 0.75112647 2.8599577e-39
0.46836641 -0.41869259 0.75278962 5.1663618e-39
0.47187144 -0.41770589 0.75026715 5.534773e-39
0.42769393 -0.41544318 0.75176358 2.8599577e-39
0.46825057 -0.4165082 0.75294995 5.1663618e-39
0.47175401 -0.41550952 0.75042903 5.4425788e-39
0.42825285 -0.41249996 0.75126523 2.8599577e-39
0.47159749 -0.41258276 0.7506448 5.4425802e-39
0.42875335 -0.41028786 0.75113153 2.8599577e-39
0.4294506 -0.40845278 0.75203192 2.8599577e-39
0.47085309 -0.4084087 0.75167084 5.2581973e-39
0.47122359 -0.41014588 0.75116009 5.442583e-39
0.42964017 -0.40665272 0.75174487 2.8599577e-39
0.47048312 -0.40667439 0.7521807 5.2581973e-39
0.42979804 -0.40348652 0.75150567 2.8599577e-39
0.47011381 -0.40494281 0.75268984 5.2581973e-39
0.47371912 -0.4032588 0.75004685 5.8113515e-39
0.42995086 -0.40031281 0.75127411 2.8599577e-39
0.4732897 -0.40077493 0.75063652 5.5347716e-39
0.43002877 -0.39741912 0.75092089 2.8599577e-39
0.47271836 -0.39746988 0.75142115 5.2581945e-39
0.43044552 -0.39428809 0.7513082 2.8599577e-39
0.47214845 -0.39417312 0.75220376 5.1660017e-39
0.43104792 -0.39148441 0.75219816 2.8599577e-39
0.47170287 -0.39168841 0.75281572 5.1660003e-39
0.43111569 -0.38857624 0.75186127 2.8599577e-39
0.43117818 -0.38566026 0.7515322 2.8599577e-39
0.47481823 -0.38599256 0.75085974 5.4425802e-39
0.43142062 -0.38251874 0.75163573 2.8599577e-39
0.47386247 -0.38305962 0.75216746 5.1660003e-39
0.43158507 -0.37938455 0.75091755 2.8599577e-39
0.43253794 -0.3762221 0.75182974 2.8599577e-39
0.43295968 -0.3734647 0.75142992 2.8599577e-39
0.43331656 -0.37045929 0.75089329 2.9521561e-39
0.43432379 -0.36752164 0.75196254 2.8599591e-39
0.43441096 -0.36497387 0.7512067 2.9521575e-39
0.43501234 -0.36407554 0.75186992 2.8599577e-39
0.4344146 -0.36168656 0.75041884 3.0443545e-39
0.43552065 -0.36126217 0.75204718 2.9521561e-39
0.44868249 -0.36036021 0.75094628 1.2631224e-38
0.4718214 -0.36129794 0.75265294 2.0928408e-38
0.43463928 -0.35854238 0.75008142 3.0443545e-39
0.43583551 -0.35838535 0.75181139 3.0443545e-39
0.47290599 -0.35942924 0.75116348 2.5833722e-39
0.43596324 -0.35550103 0.75138628 3.0443545e-39
0.47124499 -0.35605866 0.75113058 4.704648e-39
0.43666622 -0.35230765 0.7517435 3.0443545e-39
0.46916071 -0.35303599 0.75169075 4.704648e-39
0.43744144 -0.34997669 0.75136977 2.8599577e-39
0.43897808 -0.34873095 0.75143075 2.8599577e-39
0.44062093 -0.34743771 0.75173032 2.8599577e-39
0.4426817 -0.3463006 0.75173545 3.4135084e-39
0.44518089 -0.34561723 0.75204635 3.8744992e-39
0.44724345 -0.34552079 0.7525413 3.8744992e-39
0.45019209 -0.34509772 0.75293255 3.8744992e-39
0.44367677 -0.34483743 0.75074214 3.8744992e-39
0.44601554 -0.34429967 0.75082809 3.8744992e-39
0.44847026 -0.3439441 0.75114995 3.8744992e-39
0.45142946 -0.34351599 0.75153869 3.8744992e-39
0.45341 -0.34322962 0.75179899 3.8744992e-39
0.46381035 0.24203412 0.75011104 6.4410404e-39
0.41995269 -0.49911875 0.75365257 2.8599577e-39
0.42054817 -0.49938908 0.75507998 2.8599577e-39
0.45412579 -0.49945852 0.75503415 5.2581959e-39
0.42033523 -0.49640271 0.75423539 2.8599577e-39
0.4529202 -0.49703801 0.75597858 5.2581973e-39
0.45519409 -0.49659196 0.75505638 5.2581973e-39
0.45811629 -0.49688548 0.75323135 5.1660017e-39
0.42036048 -0.49352255 0.75396156 2.8599577e-39
0.45466459 -0.49324906 0.75580812 5.1663618e-39
0.45705411 -0.49359587 0.75473368 5.1663604e-39
0.42058411 -0.49041969 0.75408602 2.8599577e-39
0.45454574 -0.49107099 0.75597686 5.1663618e-39
0.45687008 -0.49065414 0.75499403 5.1663618e-39
0.45959449 -0.49067891 0.75346202 5.1660003e-39
0.42104134 -0.48763719 0.75465399 2.8599577e-39
0.45679235 -0.48783752 0.75510401 5.1663618e-39
0.45922774 -0.48820433 0.75397897 5.1660017e-39
0.42135015 -0.48442498 0.7547822 2.8599577e-39
0.45671466 -0.48502195 0.75521392 5.1663618e-39
0.45905241 -0.48458466 0.75422603 5.1663618e-39
0.42161655 -0.48137322 0.75484121 2.8599577e-39
0.45755234 -0.48132449 0.75495636 5.1663618e-39
0.42169037 -0.47854632 0.75449324 2.8599577e-39
0.45769835 -0.47811022 0.7549814 5.1663618e-39
0.42188194 -0.47548732 0.75419879 3.1365544e-39
0.42315099 -0.47539151 0.75576538 3.5053453e-39
0.45767784 -0.47535816 0.75501031 5.1660017e-39
0.46136767 -0.47518694 0.75328428 5.1660017e-39
0.42210573 -0.47246453 0.75385475 3.1365544e-39
0.42345119 -0.47246113 0.75530624 3.5053453e-39
0.45455787 -0.47273636 0.75595963 5.1660003e-39
0.45768639 -0.47263896 0.75499791 5.1660003e-39
0.46109173 -0.47282359 0.75367165 5.1660017e-39
0.42257744 -0.46979547 0.75371659 3.5053453e-39
0.42420971 -0.46953586 0.75531673 3.5053453e-39
0.45465207 -0.46944368 0.75582594 5.1660003e-39
0.45755571 -0.46959573 0.75495118 5.1660003e-39
0.46101037 -0.4699924 0.75378597 5.1663618e-39
0.42207554 -0.46661374 0.75350183 2.7832128e-39
0.42395702 -0.46647263 0.75453258 3.5057068e-39
0.45472676 -0.46612802 0.7557199 5.1660003e-39
0.45805565 -0.46639425 0.75470781 5.1660003e-39
0.46098909 -0.46654284 0.75381583 5.1660003e-39
0.4239265 -0.46379599 0.75457925 3.4135098e-39
0.45471013 -0.46339032 0.7557435 5.1660017e-39
0.45784771 -0.46326405 0.75477022 5.1660017e-39
0.46100748 -0.46313694 0.75379002 5.1660017e-39
0.42399395 -0.46057531 0.75447583 3.1365558e-39
0.45468891 -0.46064779 0.7557736 5.1660017e-39
0.45782623 -0.46051064 0.7548005 5.1660017e-39
0.46098572 -0.46037257 0.75382048 5.1660017e-39
0.47764102 -0.46098751 0.75373465 5.1659947e-39
0.42412969 -0.45743361 0.75426817 3.1365544e-39
0.45466772 -0.4579055 0.7558037 5.1660017e-39
0.45780483 -0.4577575 0.75483072 5.1660017e-39
0.46096405 -0.45760852 0.75385094 5.1660017e-39
0.42438841 -0.45469844 0.75426322 3.1365544e-39
0.4546423 -0.45447919 0.75583982 5.1660003e-39
0.45778334 -0.45500463 0.75486106 5.1660017e-39
0.46094239 -0.45484468 0.75388139 5.1660017e-39
0.42488536 -0.45147491 0.75451928 3.1365544e-39
0.4260692 -0.45032907 0.75599033 3.0443545e-39
0.45465145 -0.45109043 0.75582683 5.1660003e-39
0.45775661 -0.45156395 0.75489885 5.1660003e-39
0.46098289 -0.45146203 0.75382447 5.2581973e-39
0.42492753 -0.44858748 0.75422072 3.0443587e-39
0.42610037 -0.44838291 0.755943 3.0443545e-39
0.45467487 -0.44839656 0.75579357 5.1660003e-39
0.45774668 -0.44814157 0.75491273 5.1660003e-39
0.46108466 -0.44814342 0.75368154 5.2581973e-39
0.42491826 -0.44563937 0.75400054 3.0443545e-39
0.42614198 -0.44578764 0.75587988 3.0443545e-39
0.45469826 -0.44570243 0.75576031 5.1660003e-39
0.45776314 -0.44542956 0.75488955 5.1660003e-39
0.4610723 -0.44538924 0.75369895 5.2581973e-39
0.42512703 -0.44249853 0.75415039 2.9521575e-39
0.42619395 -0.44254279 0.7558009 3.0443545e-39
0.45472172 -0.44300801 0.75572705 5.1660003e-39
0.45773542 -0.44267106 0.75492859 5.1660003e-39
0.46075001 -0.44231215 0.75415146 5.1660003e-39
0.42516232 -0.43959862 0.75386214 2.8599591e-39
0.42624596 -0.43929714 0.75572199 3.0443545e-39
0.45466998 -0.43955466 0.75580049 5.1660003e-39
0.45763174 -0.43983358 0.75507498 5.1660003e-39
0.46065551 -0.439475 0.75428414 5.1660003e-39
0.46281493 -0.43936887 0.75357109 5.1660017e-39
0.42550847 -0.43675756 0.75392008 2.8599577e-39
0.42633542 -0.43675333 0.75558615 2.8599577e-39
0.45455879 -0.43671942 0.75595838 5.1660003e-39
0.45730871 -0.43659392 0.75529993 5.1660003e-39
0.46056104 -0.43663904 0.75441682 5.1660003e-39
0.46337557 -0.4361881 0.75356007 5.1660017e-39
0.4258962 -0.43329903 0.75391495 2.8599577e-39
0.42653406 -0.43366799 0.75528461 2.8599577e-39
0.45739132 -0.43344724 0.75541437 5.1660003e-39
0.46046662 -0.43380427 0.75454938 5.1660003e-39
0.46356958 -0.43347934 0.75367463 5.1660003e-39
0.42639393 -0.43070346 0.75432783 2.8599577e-39
0.45748043 -0.43030661 0.75551957 5.1660003e-39
0.46037224 -0.43097073 0.75468194 5.1660003e-39
0.46347421 -0.43063509 0.75380784 5.1660003e-39
0.42686066 -0.42736894 0.75449574 2.8599577e-39
0.45747319 -0.42723593 0.75568348 5.1660003e-39
0.46027786 -0.42813835 0.75481439 5.1660003e-39
0.46337885 -0.42779198 0.75394094 5.1660003e-39
0.46650088 -0.42744324 0.75306165 5.1660003e-39
0.42727321 -0.42448586 0.75462973 2.8599577e-39
0.45789164 -0.42462021 0.75586176 5.1660003e-39
0.46002507 -0.42514804 0.75516933 5.1660017e-39
0.4631291 -0.42479628 0.75428963 5.1660017e-39
0.46625432 -0.42444211 0.75340402 5.1660017e-39
0.42758808 -0.42145094 0.75462043 2.9521547e-39
0.4607268 -0.42196277 0.75534081 5.1660003e-39
0.46383202 -0.42159846 0.75446272 5.1660017e-39
0.4659166 -0.42135423 0.75387299 5.1660017e-39
0.42799982 -0.41851759 0.75446427 3.1365502e-39
0.4292599 -0.41745192 0.75583005 3.320947e-39
0.46077371 -0.41911897 0.75565928 5.1660003e-39
0.46349722 -0.41852289 0.7549293 5.1660017e-39
0.46557939 -0.41827101 0.75434113 5.1660017e-39
0.42823273 -0.41581127 0.7538774 3.0447161e-39
0.42944857 -0.41566253 0.75554585 3.320947e-39
0.46119738 -0.41649574 0.7558338 5.1660003e-39
0.46316296 -0.41545188 0.75539517 5.1660017e-39
0.46524271 -0.4151924 0.75480866 5.1660017e-39
0.46817333 -0.41505259 0.75305676 5.1663618e-39
0.42884719 -0.41332838 0.75411773 2.8599577e-39
0.4294841 -0.41228938 0.75490832 3.3213114e-39
0.46388245 -0.41226608 0.75554764 5.1660003e-39
0.46805751 -0.41287014 0.75321698 5.1663618e-39
0.42968827 -0.40975165 0.75401592 2.8599577e-39
0.46461907 -0.40909514 0.7556746 5.1660003e-39
0.46772206 -0.40978935 0.75368106 5.2581973e-39
0.43069544 -0.40653503 0.75483513 2.8599577e-39
0.46446979 -0.40689319 0.75588191 5.1660017e-39
0.46699139 -0.40633792 0.7546919 5.2581973e-39
0.43102038 -0.40354574 0.75434649 2.8599577e-39
0.46638444 -0.40301162 0.75553155 5.2581959e-39
0.4697451 -0.4032141 0.75319809 5.2581973e-39
0.43109861 -0.40065846 0.75399512 2.8599577e-39
0.46617743 -0.40006709 0.75581789 6.0879482e-39
0.46919316 -0.40062663 0.75395882 5.2581973e-39
0.43137079 -0.39755711 0.75405335 2.8599577e-39
0.43226415 -0.39611536 0.75597984 2.8599577e-39
0.46845928 -0.39718592 0.75497037 5.2581973e-39
0.43153527 -0.39482275 0.75396186 2.8599577e-39
0.43234146 -0.39419824 0.7558642 2.8599577e-39
0.46794808 -0.39395848 0.75567496 2.046743e-38
0.43187901 -0.39131403 0.75422496 2.8599577e-39
0.43244457 -0.39164105 0.75571001 2.8599577e-39
0.46786907 -0.39113164 0.75578392 1.272416e-38
0.4319821 -0.38875347 0.7540701 2.8599577e-39
0.43243861 -0.38820016 0.75513601 2.8599577e-39
0.46785378 -0.3883636 0.75580496 5.1660031e-39
0.4704442 -0.38778418 0.7545442 5.1660003e-39
0.47107267 -0.38973361 0.75368112 5.1660003e-39
0.43240684 -0.38539666 0.75460029 2.8599577e-39
0.46785024 -0.38560629 0.75580978 5.1660031e-39
0.47025627 -0.38554284 0.75480223 5.1660031e-39
0.43246651 -0.38248006 0.75427747 2.8599577e-39
0.46784669 -0.38284898 0.75581473 5.1660031e-39
0.47025269 -0.38277662 0.75480717 5.1660031e-39
0.47322756 -0.38111156 0.75303614 5.1660003e-39
0.43276897 -0.37939966 0.75429124 2.8599577e-39
0.46784222 -0.37940249 0.75582081 5.1660031e-39
0.47024912 -0.38001049 0.75481212 5.1660031e-39
0.47266978 -0.37923491 0.75379926 5.1660031e-39
0.43344098 -0.3765904 0.7546857 2.8599591e-39
0.46789515 -0.37600634 0.75574791 1.1985512e-38
0.47026813 -0.37657335 0.75478601 1.0420018e-38
0.4726747 -0.37646723 0.75379258 1.0420018e-38
0.4340246 -0.37341866 0.75451422 2.8599577e-39
0.46933672 -0.37340772 0.75491607 1.972842e-38
0.47289661 -0.37319377 0.7534889 2.0928408e-38
0.43442178 -0.37045643 0.75392139 2.8599577e-39
0.43544483 -0.36947066 0.75589436 3.136553e-39
0.46622872 -0.37055287 0.75574702 1.3357897e-38
0.46941346 -0.37051949 0.75457978 1.9451473e-38
0.47317261 -0.370657 0.7531113 2.0928408e-38
0.43494624 -0.36851865 0.75430667 2.8599577e-39
0.43541336 -0.36719453 0.75477648 2.9521575e-39
0.46444285 -0.36706859 0.7559194 1.0586978e-38
0.46660274 -0.36743823 0.75522953 1.3264983e-38
0.46956578 -0.36775962 0.75421602 1.9174885e-38
0.47120321 -0.36700916 0.75350189 2.0836212e-38
0.43579951 -0.36452833 0.75443542 2.8599591e-39
0.46460259 -0.36446103 0.75569755 1.0679174e-38
0.4669539 -0.36429799 0.75474364 1.2342302e-38
0.46915197 -0.36468172 0.75401556 1.9451473e-38
0.47147775 -0.36447284 0.75312483 2.0928408e-38
0.4365572 -0.36178175 0.75470865 2.9521561e-39
0.46475491 -0.36115873 0.75548601 1.2064632e-38
0.46714908 -0.36102054 0.75447375 1.5851868e-38
0.46949878 -0.36152172 0.7535376 2.0282315e-38
0.43712565 -0.35857177 0.75456506 2.9521575e-39
0.46487686 -0.35851523 0.75531667 1.5299793e-38
0.46727207 -0.35836843 0.75430357 1.8531341e-38
0.46968278 -0.35822067 0.75328392 1.8071093e-38
0.43748635 -0.35555017 0.75403059 3.0443545e-39
0.43861452 -0.35533556 0.75585514 3.136553e-39
0.46496838 -0.35653168 0.75518966 1.2631597e-38
0.46660653 -0.35554621 0.75445718 9.7750139e-39
0.46977592 -0.35622418 0.75315565 1.0880991e-38
0.43734741 -0.35382426 0.75307018 3.0443545e-39
0.43878588 -0.35218042 0.7549383 3.1365558e-39
0.46279961 -0.35206741 0.75590158 5.1660017e-39
0.4657355 -0.35285246 0.75470293 5.3503916e-39
0.4397417 -0.3493433 0.75419474 3.6901037e-39
0.44256076 -0.34923992 0.75509769 3.9670605e-39
0.44582081 -0.34854415 0.75538063 3.9670591e-39
0.44974864 -0.34800434 0.75589019 3.9670591e-39
0.46292078 -0.3494274 0.75573277 3.7823077e-39
0.46535665 -0.3499825 0.75465053 4.704648e-39
0.44261408 -0.34757426 0.75346863 3.8744992e-39
0.4455359 -0.3471581 0.75385958 3.8744992e-39
0.44847444 -0.34674296 0.75424832 3.8744992e-39
0.45142695 -0.34632468 0.75464123 3.8744992e-39
0.45438987 -0.34590012 0.75504363 3.8745006e-39
0.45698151 -0.34573635 0.75560743 3.8745006e-39
0.46301162 -0.34744656 0.75560606 2.3986166e-39
0.45414767 -0.34453011 0.75345713 3.8744992e-39
0.45734176 -0.34447458 0.75432777 3.8744992e-39
0.45975888 -0.34493393 0.75554299 3.8744992e-39
0.42173839 -0.49984875 0.75675976 3.6897422e-39
0.42411533 -0.49977517 0.75856996 4.4280527e-39
0.43968129 -0.49958611 0.75892079 5.0738033e-39
0.44236737 -0.49986172 0.75846761 5.0738019e-39
0.44585323 -0.49918926 0.75803298 5.0738019e-39
0.44870669 -0.49962312 0.75738597 5.2581973e-39
0.45095533 -0.49918747 0.75647306 5.2581973e-39
0.42192051 -0.49676237 0.75731385 3.3209484e-39
0.44233456 -0.49695721 0.75889969 5.0738033e-39
0.44549996 -0.49607408 0.75854295 5.0738019e-39
0.4483158 -0.49713057 0.75794709 5.1659989e-39
0.45156795 -0.49597973 0.75675398 5.2581973e-39
0.42196259 -0.49365011 0.75758207 3.0443559e-39
0.44610697 -0.4935655 0.75881881 5.0738033e-39
0.44862661 -0.49376306 0.75827092 5.0738047e-39
0.45159999 -0.49357891 0.75709271 5.1663618e-39
0.42210993 -0.49067184 0.75768936 2.8599577e-39
0.44892764 -0.4905667 0.75822371 5.1660003e-39
0.45219788 -0.49008569 0.75700784 5.1663618e-39
0.45450723 -0.489667 0.75603151 5.1663618e-39
0.42243004 -0.48748049 0.7578001 3.0443573e-39
0.44600981 -0.48672891 0.75895882 5.1660003e-39
0.44799003 -0.48730844 0.7584148 5.1660003e-39
0.45107609 -0.48728102 0.75745618 5.1660017e-39
0.45444945 -0.48756149 0.75611359 5.1663618e-39
0.42254671 -0.48480859 0.75746679 3.0443545e-39
0.42348924 -0.48398972 0.75835842 3.5053453e-39
0.44605643 -0.48476765 0.7588917 5.1660003e-39
0.44806361 -0.48469982 0.75830913 5.1660003e-39
0.45113069 -0.48463917 0.75737816 5.1660003e-39
0.45437241 -0.48475498 0.75622296 5.1663618e-39
0.42255184 -0.48123971 0.75668162 3.5053453e-39
0.42392126 -0.48126945 0.75808883 3.5053453e-39
0.44613418 -0.48149788 0.75877959 5.1660003e-39
0.44815564 -0.48143768 0.75817704 5.1660003e-39
0.4512237 -0.48136437 0.7572453 5.1660003e-39
0.45431387 -0.48197064 0.75630605 5.1660017e-39
0.42285115 -0.47831789 0.75622386 3.5053453e-39
0.4245078 -0.4782365 0.75789547 3.5053453e-39
0.44621563 -0.47823125 0.75866222 5.1660003e-39
0.4482477 -0.4781743 0.7580449 5.1660003e-39
0.45131683 -0.47808829 0.75711244 5.1660003e-39
0.45438841 -0.47865948 0.75620025 5.1660003e-39
0.42485023 -0.47557479 0.7575497 3.5053453e-39
0.42601484 -0.47427887 0.75840116 3.5053453e-39
0.44628879 -0.47562623 0.7585569 5.1660003e-39
0.44832134 -0.47556254 0.7579391 5.1660003e-39
0.45139128 -0.47546631 0.75700617 5.1660003e-39
0.45448253 -0.47536945 0.75606662 5.1660003e-39
0.42482364 -0.47249043 0.75671637 3.5053453e-39
0.42652154 -0.47233072 0.7584098 3.5053453e-39
0.44588578 -0.47206408 0.75856256 5.1660003e-39
0.44839504 -0.47294986 0.7578333 5.1660003e-39
0.45146579 -0.47284347 0.75689971 5.1660003e-39
0.42558321 -0.469565 0.75672799 3.5053453e-39
0.42695698 -0.46959421 0.75813943 3.5053453e-39
0.4454608 -0.46915078 0.75859988 5.1660003e-39
0.44848719 -0.46968278 0.7577011 5.1660003e-39
0.45155898 -0.46956363 0.75676674 5.1660003e-39
0.42579138 -0.46651375 0.75641197 3.5057068e-39
0.42716739 -0.46654463 0.7578218 3.5057068e-39
0.44548881 -0.46649504 0.75855947 5.0738047e-39
0.44853216 -0.46636117 0.75763655 5.1660017e-39
0.45162094 -0.46624756 0.75667834 5.1660017e-39
0.42574835 -0.46382219 0.75647736 3.5057068e-39
0.4271242 -0.46385288 0.75788701 3.5057068e-39
0.44551545 -0.46383747 0.75852084 5.0738033e-39
0.44851142 -0.4636398 0.75766635 5.1660017e-39
0.45159996 -0.46351546 0.75670826 5.1660017e-39
0.42569461 -0.46045867 0.7565589 3.3213128e-39
0.42707017 -0.46048906 0.75796849 3.5057068e-39
0.44281521 -0.46032783 0.75896955 5.0738019e-39
0.44555941 -0.46052691 0.75845736 5.0738033e-39
0.44851404 -0.46094471 0.75766253 5.1660003e-39
0.45157897 -0.46078372 0.75673825 5.1660017e-39
0.42575851 -0.45723316 0.75646186 3.1365544e-39
0.42702973 -0.45714176 0.75802958 3.4131497e-39
0.44286257 -0.45770133 0.75890076 5.0738019e-39
0.44560343 -0.45721567 0.75839376 5.0738033e-39
0.44854271 -0.4576039 0.75762135 5.1660003e-39
0.45136708 -0.45767349 0.75680971 5.1660003e-39
0.42587233 -0.45472482 0.75628912 3.1365544e-39
0.42709321 -0.45457533 0.75793362 3.1365544e-39
0.44292176 -0.45441732 0.75881481 5.0738019e-39
0.44563866 -0.45456624 0.75834292 5.0738033e-39
0.44857135 -0.45426261 0.75758028 5.1660003e-39
0.45178789 -0.45441112 0.75667065 5.1660003e-39
0.42595774 -0.45284265 0.75615954 3.1365544e-39
0.42702723 -0.45142075 0.7575348 3.0443559e-39
0.44298095 -0.45113245 0.75872886 5.0738019e-39
0.44549671 -0.45155376 0.75831711 5.0738033e-39
0.44859427 -0.45158926 0.75754738 5.1660003e-39
0.45161271 -0.45134068 0.75668997 5.1660003e-39
0.42725199 -0.4481557 0.75769389 3.0443545e-39
0.44213423 -0.44869113 0.75880682 5.0738019e-39
0.44590455 -0.44830409 0.75818968 5.0738033e-39
0.44861719 -0.44891566 0.75751448 5.1660003e-39
0.4516359 -0.44865701 0.75665689 5.1660003e-39
0.42729372 -0.44556165 0.75763094 3.0443545e-39
0.44245502 -0.44619736 0.75872499 5.0738033e-39
0.44577315 -0.44530189 0.75814867 5.0738019e-39
0.44864583 -0.44557324 0.75747329 5.1660003e-39
0.4514606 -0.44558883 0.75667632 5.1660003e-39
0.42726487 -0.44259271 0.75744188 3.0443545e-39
0.44301185 -0.4424541 0.75868398 5.1660003e-39
0.44582102 -0.442664 0.75807959 5.0738019e-39
0.44867447 -0.44223037 0.75743222 5.1660003e-39
0.45189229 -0.44233066 0.75652176 5.1660003e-39
0.42746848 -0.43944865 0.75759971 3.0443545e-39
0.4428727 -0.43895307 0.75888598 5.1660003e-39
0.44563255 -0.43960181 0.75812101 5.0738033e-39
0.44869739 -0.43955573 0.75739926 5.1660003e-39
0.45170158 -0.43924552 0.75656307 5.1660003e-39
0.42743969 -0.43647832 0.75741065 3.0443545e-39
0.44593564 -0.43623313 0.75814515 5.1660003e-39
0.4487085 -0.43686834 0.75738335 5.1660003e-39
0.45162132 -0.43645218 0.75667751 5.1660003e-39
0.45450318 -0.43530244 0.75603729 5.1660003e-39
0.42747489 -0.43357763 0.7571246 2.8599591e-39
0.44551706 -0.43292838 0.75851858 5.1660003e-39
0.44855314 -0.43400586 0.75760639 5.1660017e-39
0.45150554 -0.43362257 0.75684285 5.1660003e-39
0.45441979 -0.43317762 0.75615561 5.1660003e-39
0.42808118 -0.43036461 0.75760537 2.9521561e-39
0.44621637 -0.42982268 0.75866115 5.1660003e-39
0.448286 -0.43102822 0.75798988 5.1660017e-39
0.4513008 -0.43070209 0.75713521 5.1660017e-39
0.45430207 -0.43033892 0.75632286 5.1660003e-39
0.42825329 -0.42795554 0.75734621 2.9521561e-39
0.4291178 -0.42692351 0.75836968 3.320947e-39
0.44602352 -0.42760438 0.75893909 5.1660003e-39
0.4486649 -0.42773116 0.7582159 5.1660017e-39
0.45138922 -0.42792782 0.7573933 5.1660017e-39
0.45406321 -0.42737773 0.75666189 5.1660017e-39
0.45602852 -0.4263984 0.75618446 5.1660003e-39
0.42850718 -0.42459252 0.75696427 3.320947e-39
0.4296155 -0.42424113 0.75820327 3.320947e-39
0.44875392 -0.42496809 0.75847262 5.1660017e-39
0.45176801 -0.42461944 0.75762045 5.1660017e-39
0.45480245 -0.42426282 0.75676811 5.1660003e-39
0.45774841 -0.42311239 0.75606364 5.1660003e-39
0.42882046 -0.42162049 0.75649214 3.320947e-39
0.43011364 -0.42155555 0.75803667 3.320947e-39
0.44948715 -0.42187834 0.75857294 5.1660017e-39
0.45149797 -0.42163822 0.75800526 5.1660017e-39
0.45452288 -0.42126387 0.7571643 5.1660003e-39
0.45753363 -0.42085266 0.75636631 5.1660003e-39
0.43028468 -0.41858628 0.7573933 3.320947e-39
0.44928628 -0.4196502 0.75886029 5.1660017e-39
0.45122829 -0.41866064 0.75838959 5.1660017e-39
0.45423928 -0.41826439 0.75756621 5.1660003e-39
0.45724759 -0.41784295 0.75676942 5.1660003e-39
0.45932579 -0.41830152 0.75615114 5.1660003e-39
0.43098989 -0.41570488 0.75742084 3.320947e-39
0.43210161 -0.41493767 0.75854498 3.320947e-39
0.45159808 -0.41534266 0.75863117 5.1660003e-39
0.45431331 -0.41547099 0.75784492 5.1660003e-39
0.4569619 -0.41483709 0.75717199 5.1660003e-39
0.45975748 -0.41568914 0.75631493 5.1660003e-39
0.43103865 -0.41259134 0.75665069 3.5053453e-39
0.43235496 -0.41254914 0.75816745 3.320947e-39
0.45267004 -0.41241854 0.75863993 5.1660003e-39
0.45467389 -0.41213298 0.75810051 5.1660003e-39
0.45774955 -0.41243249 0.75721586 5.1660003e-39
0.46083552 -0.41272259 0.75634003 5.1660003e-39
0.4311685 -0.40940857 0.75645638 3.874502e-39
0.43310416 -0.40953869 0.75821126 3.320947e-39
0.45245838 -0.41017938 0.75894034 5.1660003e-39
0.45438975 -0.40914086 0.75850236 5.1660003e-39
0.45746353 -0.40942991 0.75761819 5.1660003e-39
0.4605464 -0.40970835 0.75674444 5.1660003e-39
0.46256724 -0.40939239 0.75622547 5.1660003e-39
0.43170848 -0.40684396 0.75681078 3.874502e-39
0.43327937 -0.40639853 0.75795084 3.7819434e-39
0.45417696 -0.40689921 0.75880337 5.1660003e-39
0.45717788 -0.4064312 0.75802004 5.1660003e-39
0.46025765 -0.40669799 0.75714833 5.1660003e-39
0.46298638 -0.40607008 0.7564106 5.1660003e-39
0.43185982 -0.40367898 0.75658447 3.1369145e-39
0.43331546 -0.40311432 0.75789726 3.874502e-39
0.45582294 -0.40285251 0.75877702 7.0095345e-39
0.45796227 -0.40402019 0.75806558 5.3503902e-39
0.45998171 -0.40370342 0.75753438 5.3503902e-39
0.46315992 -0.40334761 0.75655293 5.2581959e-39
0.43324184 -0.4006739 0.75750977 3.5060698e-39
0.43500698 -0.40012807 0.75886226 3.8748607e-39
0.45768443 -0.40103245 0.75845563 1.1618188e-38
0.46083945 -0.40066314 0.7574867 8.945263e-39
0.4640331 -0.40030655 0.75648832 6.6407562e-39
0.43320057 -0.39772487 0.75723952 3.5060698e-39
0.43509117 -0.39755306 0.7587378 3.5982668e-39
0.45747891 -0.39811686 0.75874424 2.037524e-38
0.46064776 -0.3977513 0.75775433 1.8992317e-38
0.46383926 -0.39738315 0.7567575 1.5858058e-38
0.46598217 -0.397136 0.75608814 1.5766586e-38
0.43350539 -0.39449248 0.75738275 3.8748607e-39
0.4351356 -0.3942726 0.75867212 3.2287514e-39
0.4573369 -0.39458403 0.75894362 1.6220653e-38
0.46049425 -0.39487752 0.75796866 1.4743718e-38
0.46366972 -0.39448467 0.75699288 1.6036624e-38
0.46622601 -0.39421955 0.75677532 1.8067462e-38
0.43371826 -0.39155582 0.75729823 3.8748607e-39
0.43515673 -0.39163351 0.75864083 3.2287514e-39
0.45730343 -0.39115486 0.75899065 1.1233791e-38
0.4602254 -0.39171261 0.75811446 1.0679174e-38
0.463608 -0.39168769 0.75707865 1.2989113e-38
0.46573284 -0.39141038 0.75643301 1.7698669e-38
0.43391639 -0.38860255 0.75723571 3.5979053e-39
0.43518317 -0.38833427 0.75860173 3.2287514e-39
0.45731097 -0.38844374 0.75898004 1.0679894e-38
0.46059203 -0.38833243 0.75806189 1.0586618e-38
0.46355805 -0.38890234 0.75714791 1.1696209e-38
0.46568257 -0.38861766 0.75650263 1.5851509e-38
0.43378687 -0.38546085 0.75696385 3.5979053e-39
0.4352096 -0.38503465 0.75856262 3.2287514e-39
0.45731851 -0.38573253 0.75896943 1.0494781e-38
0.46035749 -0.3852005 0.75815958 1.0678814e-38
0.46349564 -0.38542151 0.75723457 1.0956842e-38
0.46563229 -0.38582554 0.75657213 1.4190182e-38
0.43395305 -0.38247424 0.75694883 3.5057082e-39
0.43523076 -0.38239467 0.75853133 3.2287514e-39
0.45732611 -0.38302127 0.7589587 1.0402585e-38
0.460361 -0.38247538 0.75815469 1.0679174e-38
0.4634333 -0.38194156 0.75732118 1.0863926e-38
0.46558198 -0.38303405 0.75664175 1.2621411e-38
0.43394271 -0.379491 0.75673181 3.22875e-39
0.43527713 -0.37977847 0.75846279 3.2287514e-39
0.45732689 -0.37962413 0.75895762 1.0679174e-38
0.46036863 -0.37975392 0.75814396 1.0586618e-38
0.46342364 -0.37919432 0.75733459 1.1510738e-38
0.46551919 -0.37954557 0.75672865 1.1790207e-38
0.43467292 -0.37673983 0.7570402 3.22875e-39
0.43577659 -0.37637794 0.75830323 3.320947e-39
0.4573057 -0.3762072 0.75898743 1.0956481e-38
0.46017441 -0.37666255 0.75818551 1.0586618e-38
0.46343136 -0.37646267 0.75732386 1.1325986e-38
0.46555686 -0.37614673 0.75667644 1.354337e-38
0.43492121 -0.37431175 0.75667149 3.136553e-39
0.43600845 -0.37351012 0.75784457 3.22875e-39
0.46066228 -0.373384 0.75796384 1.0494422e-38
0.46370089 -0.37327656 0.7569496 1.1048318e-38
0.46585524 -0.37366271 0.75626373 1.308167e-38
0.43622804 -0.37074763 0.75734633 3.136553e-39
0.45748165 -0.37024713 0.75874037 9.9426876e-39
0.46072298 -0.3705163 0.75764954 1.0494422e-38
0.46407154 -0.37017518 0.75643492 1.0771369e-38
0.43688095 -0.36753672 0.75725132 3.136553e-39
0.43811971 -0.36742142 0.75889933 3.136553e-39
0.45773488 -0.36707082 0.75838482 1.2991641e-38
0.45974314 -0.36733687 0.75786811 1.0679894e-38
0.46281418 -0.36802211 0.75665039 1.0678812e-38
0.43720999 -0.36450276 0.75676554 3.136553e-39
0.43844965 -0.36438823 0.75841498 3.136553e-39
0.45585498 -0.36487445 0.75873184 1.5117557e-38
0.45727229 -0.36398935 0.75826997 1.4470382e-38
0.45989281 -0.36405757 0.75765872 1.2066078e-38
0.46222511 -0.36458766 0.75670224 1.0770649e-38
0.43788713 -0.36203456 0.75692677 3.136553e-39
0.43881309 -0.36104661 0.75788128 3.136553e-39
0.4541049 -0.36076194 0.75890535 1.3361145e-38
0.45711058 -0.36148947 0.75811434 1.594733e-38
0.46001261 -0.36143249 0.75749111 1.2252271e-38
0.46237612 -0.36129606 0.75649178 1.0772448e-38
0.43911102 -0.35830799 0.75744385 3.136553e-39
0.45436206 -0.35827446 0.75854141 1.520614e-38
0.45746636 -0.35858759 0.75784397 1.3737202e-38
0.46013251 -0.35880598 0.75732338 1.548345e-38
0.46249706 -0.35866106 0.75632328 1.5114311e-38
0.43985647 -0.35522357 0.75750852 3.136553e-39
0.44228357 -0.3544167 0.75858939 4.1514574e-39
0.45248923 -0.35542253 0.75889659 2.0651461e-38
0.45464563 -0.35512859 0.7581405 4.7050095e-39
0.45744556 -0.35565513 0.75764316 7.6545298e-39
0.46029902 -0.35553479 0.75709051 1.0879527e-38
0.4626483 -0.35536528 0.75611252 1.0051231e-38
0.44001338 -0.35304371 0.75689268 3.7823049e-39
0.44235754 -0.35248953 0.7573263 4.1514574e-39
0.44545397 -0.35205388 0.75783998 4.1514574e-39
0.44862416 -0.35204685 0.75865805 4.1514574e-39
0.4520483 -0.35224858 0.75860435 1.3460959e-38
0.45479318 -0.35254115 0.75793171 3.044363e-39
0.45742464 -0.35272232 0.75744247 4.3358571e-39
0.46048707 -0.35227939 0.75682747 5.4422158e-39
0.4430232 -0.35077089 0.75635552 4.1514574e-39
0.44561812 -0.3499023 0.75644654 4.059259e-39
0.44818941 -0.34976649 0.75697511 4.059259e-39
0.4511129 -0.34933996 0.75740248 4.0592576e-39
0.45431089 -0.34932417 0.75769466 6.5477759e-39
0.45798826 -0.34950039 0.75711 2.6755706e-39
0.46063766 -0.349673 0.75661683 3.6904722e-39
0.45271248 -0.34759676 0.75627464 3.9670591e-39
0.45469737 -0.34732369 0.75653189 3.9670591e-39
0.45776883 -0.34698105 0.75680423 2.8599661e-39
0.4604398 -0.34628549 0.75631851 3.1369201e-39
0.42561042 -0.49881047 0.75901288 4.797208e-39
0.42782986 -0.49925408 0.75914603 4.797208e-39
0.43075293 -0.49934393 0.75939924 4.797208e-39
0.43369234 -0.49943483 0.75965333 4.7972108e-39
0.43701279 -0.49931133 0.759372 5.0738033e-39
0.43950689 -0.49803674 0.75917584 5.0738033e-39
0.42469007 -0.49623841 0.75924647 4.797208e-39
