# .PCD v0.7 - Point Cloud Data file format
VERSION 0.7
FIELDS x y z rgb
SIZE 4 4 4 4
TYPE F F F F
COUNT 1 1 1 1
WIDTH 975
HEIGHT 1
VIEWPOINT 0 0 0 1 0 0 0
POINTS 975
DATA ascii
0.70043844 -0.019085888 0.61000097 1.0879084e-38
0.70293224 -0.019158928 0.61000097 1.0879084e-38
0.70669067 -0.019269012 0.61000103 1.0879084e-38
0.71046698 -0.019379612 0.61000109 1.0879084e-38
0.71299666 -0.019453706 0.61000103 1.0879084e-38
0.7155354 -0.019528063 0.61000109 1.0879084e-38
0.7180832 -0.019602684 0.61000109 1.0879084e-38
0.72064012 -0.019677574 0.61000109 1.0879084e-38
0.7244941 -0.019790456 0.61000109 1.0879084e-38
0.72836661 -0.019903878 0.61000115 1.0879084e-38
0.73096079 -0.019979855 0.61000121 1.0879084e-38
0.73356438 -0.019100294 0.61000121 1.0879084e-38
0.73617744 -0.019175086 0.61000121 1.0879084e-38
0.73880005 -0.019250154 0.61000127 1.0879084e-38
0.74143219 -0.019325498 0.61000127 1.0879084e-38
0.74539977 -0.01943906 0.61000133 1.0879084e-38
0.74938673 -0.019553181 0.61000133 1.0879084e-38
0.75205785 -0.019629639 0.61000133 1.0879084e-38
0.75473875 -0.019706372 0.61000133 1.0879084e-38
0.75742948 -0.019783389 0.61000139 1.0879084e-38
0.76013023 -0.019860696 0.61000139 1.0879084e-38
0.76284099 -0.019938286 0.61000139 1.0879084e-38
0.76556182 -0.019039048 0.61000139 1.0879084e-38
0.76829273 -0.019115398 0.61000144 1.0879084e-38
0.7724095 -0.019230491 0.6100015 1.0879084e-38
0.7765469 -0.019346161 0.6100015 1.0879084e-38
0.77931887 -0.01942366 0.6100015 1.0879084e-38
0.78210127 -0.019501451 0.61000156 1.0879084e-38
0.78489417 -0.019579533 0.61000156 1.0879084e-38
0.78769761 -0.01965791 0.61000162 1.0879084e-38
0.79051155 -0.019736584 0.61000156 1.0879084e-38
0.79333621 -0.019815555 0.61000162 1.0879084e-38
0.79617161 -0.019894823 0.61000162 1.0879084e-38
0.79901773 -0.019974396 0.61000168 1.0879084e-38
0.80187464 -0.019052975 0.61000174 1.0879084e-38
0.80474257 -0.019131247 0.61000168 1.0879084e-38
0.8076213 -0.019209813 0.61000174 1.0879084e-38
0.81051123 -0.019288685 0.61000168 1.0879084e-38
0.81341213 -0.019367855 0.61000174 1.0879084e-38
0.81632423 -0.019447334 0.61000174 1.0879084e-38
0.81924748 -0.019527115 0.6100018 1.0879084e-38
0.822182 -0.019607205 0.61000186 1.0879084e-38
0.82512784 -0.019687604 0.61000186 1.0879084e-38
0.82808512 -0.019768313 0.61000186 1.0879084e-38
0.83105397 -0.019849338 0.61000192 1.0879084e-38
0.83403426 -0.019930676 0.61000186 1.0879084e-38
0.83702624 -0.020012334 0.61000192 1.0879084e-38
0.84002978 -0.019067615 0.61000198 1.0879084e-38
0.84304512 -0.019147905 0.61000192 1.0879084e-38
0.84607232 -0.019228505 0.61000198 1.0879084e-38
0.84911132 -0.019309424 0.61000198 1.0879084e-38
0.85216224 -0.019390659 0.61000204 1.0879084e-38
0.85522527 -0.019472215 0.6100021 1.0879084e-38
0.85830039 -0.019554097 0.61000204 1.0879084e-38
0.86138773 -0.019636299 0.6100021 1.0879084e-38
0.86448717 -0.019718826 0.61000216 1.0879084e-38
0.86759907 -0.019801684 0.61000216 1.0879084e-38
0.33162948 -0.016543062 0.60999846 1.0786889e-38
0.33502102 -0.016669489 0.60999846 1.0786889e-38
0.33775085 -0.016771249 0.60999858 1.0786889e-38
0.34049514 -0.016873548 0.60999858 1.0786889e-38
0.34325397 -0.016976386 0.60999858 1.0786889e-38
0.3461664 -0.016665969 0.60999858 1.0786889e-38
0.34951568 -0.016509632 0.60999864 1.0786889e-38
0.3530257 -0.01593563 0.60999858 1.0786889e-38
0.35585123 -0.016037196 0.6099987 1.0786889e-38
0.35869205 -0.01613931 0.6099987 1.0786889e-38
0.3615481 -0.016241971 0.6099987 1.0786889e-38
0.36441958 -0.016345188 0.6099987 1.0786889e-38
0.36730659 -0.016448965 0.6099987 1.0786889e-38
0.37020922 -0.016553301 0.6099987 1.0786889e-38
0.37312773 -0.016658209 0.60999876 1.0786889e-38
0.3760621 -0.016763687 0.60999876 1.0786889e-38
0.37901253 -0.016869741 0.60999882 1.0786889e-38
0.3819792 -0.016976381 0.60999882 1.0786889e-38
0.38496214 -0.017083602 0.60999888 1.0786889e-38
0.38811198 -0.016761065 0.60999894 1.0786889e-38
0.39082637 -0.01627541 0.60999894 1.0786889e-38
0.39401034 -0.01594926 0.60999894 1.0786889e-38
0.39705995 -0.01605482 0.60999894 1.0786889e-38
0.40012658 -0.016160969 0.60999894 1.0786889e-38
0.40321037 -0.016267709 0.60999906 1.0786889e-38
0.40631151 -0.016375054 0.60999894 1.0786889e-38
0.40943 -0.016482998 0.609999 1.0786889e-38
0.41256618 -0.016591556 0.609999 1.0786889e-38
0.41571999 -0.016700722 0.60999906 1.0786889e-38
0.41889176 -0.01681051 0.60999912 1.0786889e-38
0.42208159 -0.016920924 0.60999912 1.0786889e-38
0.42448533 -0.017004127 0.60999918 1.0786889e-38
0.42690045 -0.017087726 0.60999918 1.0786889e-38
0.43013608 -0.017199725 0.60999918 1.0786889e-38
0.43339032 -0.015800353 0.60999918 1.0786889e-38
0.43666321 -0.015909284 0.60999924 1.0786889e-38
0.43995512 -0.016018849 0.60999918 1.0786889e-38
0.44243595 -0.01610142 0.6099993 1.0786889e-38
0.44492871 -0.016184388 0.6099993 1.0786889e-38
0.44826868 -0.016295549 0.6099993 1.0786889e-38
0.45162803 -0.016407359 0.60999936 1.0786889e-38
0.45500714 -0.016519826 0.6099993 1.0786889e-38
0.45755383 -0.016604587 0.6099993 1.0786889e-38
0.46011305 -0.016689762 0.60999942 1.0786889e-38
0.46354207 -0.016803894 0.60999942 1.0786889e-38
0.46699136 -0.016918696 0.60999942 1.0786889e-38
0.46959114 -0.017005222 0.60999948 1.0786889e-38
0.47220379 -0.01709218 0.60999942 1.0786889e-38
0.47541204 -0.016937373 0.60999948 1.0786889e-38
0.47834331 -0.016510591 0.60999948 1.0786889e-38
0.48129037 -0.016081193 0.60999954 1.0786889e-38
0.48454869 -0.015922934 0.60999948 1.0786889e-38
0.48722714 -0.016008515 0.60999954 1.0786889e-38
0.48991919 -0.016094528 0.60999954 1.0786889e-38
0.49352655 -0.01620979 0.6099996 1.0786889e-38
0.4962458 -0.016296675 0.60999966 1.0786889e-38
0.49897879 -0.016383998 0.60999966 1.0786889e-38
0.50264132 -0.016501021 0.60999966 1.0786889e-38
0.50540215 -0.016589237 0.60999966 1.0786889e-38
0.50817716 -0.016677901 0.60999966 1.0786889e-38
0.51189601 -0.016796725 0.60999972 1.0786889e-38
0.51469958 -0.016886301 0.60999972 1.0786889e-38
0.51751745 -0.016976338 0.60999972 1.0786889e-38
0.52034694 -0.017066747 0.60999978 1.0879084e-38
0.52287441 -0.016875364 0.60999978 1.0879084e-38
0.52700305 -0.016461097 0.60999978 1.0879084e-38
0.52987671 -0.016551003 0.60999984 1.0879084e-38
0.53308707 -0.01610291 0.6099999 1.0879084e-38
0.53566623 -0.015908046 0.6099999 1.0879084e-38
0.53858221 -0.015997335 0.6099999 1.0879084e-38
0.5415104 -0.016086997 0.6099999 1.0879084e-38
0.54445398 -0.016177129 0.6099999 1.0879084e-38
0.54741007 -0.016267646 0.6099999 1.0879084e-38
0.55038166 -0.016358636 0.61000001 1.0879084e-38
0.55336589 -0.016450014 0.61000001 1.0879084e-38
0.55636597 -0.016541876 0.61000001 1.0879084e-38
0.5593788 -0.016634131 0.61000001 1.0879084e-38
0.56240761 -0.016726876 0.61000007 1.0879084e-38
0.56544948 -0.016820019 0.61000007 1.0879084e-38
0.56850761 -0.01691366 0.61000013 1.0879084e-38
0.57157886 -0.017007703 0.61000013 1.0879084e-38
0.57466674 -0.017102253 0.61000013 1.0879084e-38
0.57776797 -0.016345099 0.61000019 1.0879084e-38
0.58088589 -0.016438495 0.61000019 1.0879084e-38
0.58401734 -0.016532298 0.61000019 1.0879084e-38
0.58611411 -0.016595107 0.61000019 1.0879084e-38
0.58962458 -0.016126612 0.61000019 1.0879084e-38
0.59244543 -0.015922874 0.61000025 1.0879084e-38
0.59563541 -0.016016308 0.61000025 1.0879084e-38
0.5988394 -0.016110146 0.61000025 1.0879084e-38
0.60098475 -0.016172983 0.61000031 1.0879084e-38
0.60421693 -0.016267654 0.61000031 1.0879084e-38
0.60746348 -0.01636274 0.61000037 1.0879084e-38
0.61072791 -0.016458351 0.61000037 1.0879084e-38
0.61400694 -0.016554389 0.61000037 1.0879084e-38
0.61620265 -0.016618701 0.61000037 1.0879084e-38
0.61951089 -0.016715597 0.61000043 1.0879084e-38
0.62283397 -0.016812924 0.61000049 1.0879084e-38
0.62505925 -0.0168781 0.61000043 1.0879084e-38
0.62841219 -0.016976304 0.61000049 1.0879084e-38
0.63178015 -0.017074948 0.61000049 1.0879084e-38
0.63403559 -0.016251441 0.61000055 1.0879084e-38
0.63743412 -0.016348718 0.61000049 1.0879084e-38
0.64084798 -0.016446434 0.61000061 1.0879084e-38
0.64313418 -0.016511872 0.61000061 1.0879084e-38
0.64657921 -0.016610483 0.61000061 1.0879084e-38
0.65003991 -0.01670954 0.61000067 1.0879084e-38
0.65235752 -0.01677588 0.61000067 1.0879084e-38
0.65468317 -0.015939135 0.61000067 1.0879084e-38
0.65818763 -0.01603711 0.61000073 1.0879084e-38
0.66170824 -0.016135538 0.61000073 1.0879084e-38
0.66406608 -0.016201457 0.61000073 1.0879084e-38
0.66761923 -0.016300797 0.61000079 1.0879084e-38
0.67118883 -0.016400596 0.61000085 1.0879084e-38
0.67357969 -0.016467441 0.61000073 1.0879084e-38
0.67597884 -0.016534513 0.61000085 1.0879084e-38
0.67959434 -0.016635595 0.61000085 1.0879084e-38
0.68322664 -0.016737146 0.61000085 1.0879084e-38
0.68565959 -0.016805166 0.61000091 1.0879084e-38
0.68810105 -0.016873423 0.61000091 1.0879084e-38
0.6905511 -0.01694192 0.61000097 1.0879084e-38
0.69383234 -0.016723502 0.61000091 1.0879084e-38
0.6979534 -0.016216755 0.61000103 1.0879084e-38
0.70043844 -0.016284581 0.61000097 1.0879084e-38
0.70293224 -0.016352639 0.61000097 1.0879084e-38
0.70669067 -0.016455216 0.61000103 1.0879084e-38
0.71046698 -0.016558278 0.61000109 1.0879084e-38
0.71299666 -0.016627319 0.61000103 1.0879084e-38
0.7155354 -0.016696606 0.61000109 1.0879084e-38
0.7180832 -0.016766138 0.61000109 1.0879084e-38
0.72064012 -0.016835924 0.61000109 1.0879084e-38
0.7244941 -0.015991323 0.61000109 1.0879084e-38
0.72836661 -0.016094435 0.61000115 1.0879084e-38
0.73096079 -0.016163506 0.61000121 1.0879084e-38
0.73356438 -0.016232833 0.61000121 1.0879084e-38
0.73617744 -0.016302407 0.61000121 1.0879084e-38
0.73880005 -0.016372237 0.61000127 1.0879084e-38
0.74143219 -0.016442325 0.61000127 1.0879084e-38
0.74539977 -0.016547965 0.61000133 1.0879084e-38
0.74938673 -0.016654123 0.61000133 1.0879084e-38
0.75205785 -0.016725244 0.61000133 1.0879084e-38
0.75473875 -0.016796628 0.61000133 1.0879084e-38
0.75742948 -0.016868273 0.61000139 1.0879084e-38
0.76013023 -0.016940184 0.61000139 1.0879084e-38
0.76284099 -0.01701236 0.61000139 1.0879084e-38
0.76556182 -0.016107686 0.61000139 1.0879084e-38
0.76829273 -0.016178586 0.61000144 1.0879084e-38
0.7724095 -0.016285457 0.6100015 1.0879084e-38
0.7765469 -0.016392864 0.6100015 1.0879084e-38
0.77931887 -0.016464829 0.6100015 1.0879084e-38
0.78210127 -0.016537063 0.61000156 1.0879084e-38
0.78489417 -0.016609568 0.61000156 1.0879084e-38
0.78769761 -0.016682345 0.61000162 1.0879084e-38
0.79051155 -0.016755402 0.61000156 1.0879084e-38
0.79333621 -0.016828731 0.61000162 1.0879084e-38
0.79617161 -0.016902339 0.61000162 1.0879084e-38
0.79901773 -0.016976226 0.61000168 1.0879084e-38
0.80187464 -0.0160491 0.61000174 1.0879084e-38
0.80474257 -0.016121646 0.61000168 1.0879084e-38
0.8076213 -0.016194463 0.61000174 1.0879084e-38
0.81051123 -0.016267564 0.61000168 1.0879084e-38
0.81341213 -0.016340941 0.61000174 1.0879084e-38
0.81632423 -0.016414603 0.61000174 1.0879084e-38
0.81924748 -0.016488547 0.6100018 1.0879084e-38
0.822182 -0.016562777 0.61000186 1.0879084e-38
0.82512784 -0.016637292 0.61000186 1.0879084e-38
0.82808512 -0.016712096 0.61000186 1.0879084e-38
0.83105397 -0.01678719 0.61000192 1.0879084e-38
0.83403426 -0.016862581 0.61000186 1.0879084e-38
0.83702624 -0.016938262 0.61000192 1.0879084e-38
0.84002978 -0.015987545 0.61000198 1.0879084e-38
0.84304512 -0.016061813 0.61000192 1.0879084e-38
0.84607232 -0.016136371 0.61000198 1.0879084e-38
0.84911132 -0.016211219 0.61000198 1.0879084e-38
0.85216224 -0.016286362 0.61000204 1.0879084e-38
0.85522527 -0.016361799 0.6100021 1.0879084e-38
0.85830039 -0.016437542 0.61000204 1.0879084e-38
0.86138773 -0.016513579 0.6100021 1.0879084e-38
0.86448717 -0.016589917 0.61000216 1.0879084e-38
0.86759907 -0.016666558 0.61000216 1.0879084e-38
0.33162948 -0.013789989 0.60999846 1.0786889e-38
0.33502102 -0.013907384 0.60999846 1.0786889e-38
0.33775088 -0.014001876 0.60999852 1.0786889e-38
0.34063274 -0.013684851 0.60999858 1.0786889e-38
0.34325394 -0.013496354 0.60999852 1.0786889e-38
0.34588832 -0.013306464 0.60999858 1.0786889e-38
0.34951568 -0.013008761 0.60999864 1.0786889e-38
0.3530257 -0.013125585 0.60999858 1.0786889e-38
0.35585123 -0.013219628 0.6099987 1.0786889e-38
0.35869205 -0.013314175 0.6099987 1.0786889e-38
0.36154813 -0.013409233 0.6099987 1.0786889e-38
0.36441958 -0.013504805 0.6099987 1.0786889e-38
0.36730656 -0.013600892 0.60999876 1.0786889e-38
0.37020922 -0.013697502 0.60999876 1.0786889e-38
0.3731277 -0.013794637 0.60999876 1.0786889e-38
0.3760621 -0.013892302 0.60999882 1.0786889e-38
0.37901253 -0.013990501 0.60999882 1.0786889e-38
0.38197917 -0.014089241 0.60999882 1.0786889e-38
0.38511166 -0.013758938 0.60999888 1.0786889e-38
0.38781124 -0.013267173 0.60999894 1.0786889e-38
0.39097756 -0.012933184 0.60999894 1.0786889e-38
0.39401031 -0.013030087 0.60999894 1.0786889e-38
0.39705995 -0.013127527 0.60999894 1.0786889e-38
0.40012661 -0.013225512 0.60999894 1.0786889e-38
0.40321037 -0.013324041 0.609999 1.0786889e-38
0.40631151 -0.013423126 0.60999894 1.0786889e-38
0.40943003 -0.013522768 0.609999 1.0786889e-38
0.41256616 -0.013622975 0.609999 1.0786889e-38
0.41571999 -0.013723744 0.60999906 1.0786889e-38
0.41889176 -0.013825087 0.60999906 1.0786889e-38
0.42208159 -0.013927008 0.60999912 1.0786889e-38
0.42448533 -0.01400381 0.60999918 1.0786889e-38
0.42690045 -0.014080978 0.60999918 1.0786889e-38
0.43013605 -0.014184362 0.60999918 1.0786889e-38
0.43366227 -0.013036475 0.60999918 1.0786889e-38
0.43666321 -0.012876543 0.60999924 1.0786889e-38
0.43995512 -0.012977343 0.60999918 1.0786889e-38
0.44243595 -0.013053305 0.6099993 1.0786889e-38
0.44492871 -0.013129637 0.6099993 1.0786889e-38
0.44826868 -0.013231905 0.6099993 1.0786889e-38
0.45162803 -0.013334772 0.60999936 1.0786889e-38
0.45500714 -0.013438241 0.6099993 1.0786889e-38
0.45755383 -0.013516221 0.6099993 1.0786889e-38
0.46011302 -0.013594583 0.60999942 1.0786889e-38
0.46354204 -0.013699582 0.60999942 1.0786889e-38
0.46699136 -0.013805201 0.60999942 1.0786889e-38
0.46959114 -0.013884807 0.60999942 1.0786889e-38
0.47220379 -0.013964807 0.60999942 1.0786889e-38
0.47570464 -0.014072004 0.60999948 1.0786889e-38
0.47834331 -0.014152801 0.60999948 1.0786889e-38
0.48069993 -0.013962198 0.60999954 1.0786889e-38
0.48454872 -0.01355275 0.60999954 1.0786889e-38
0.48722714 -0.012841139 0.60999954 1.0786889e-38
0.48991919 -0.012919986 0.60999954 1.0786889e-38
0.49352652 -0.013025642 0.6099996 1.0786889e-38
0.4962458 -0.013105286 0.60999966 1.0786889e-38
0.49897879 -0.013185333 0.60999966 1.0786889e-38
0.50264132 -0.013292603 0.60999966 1.0786889e-38
0.50540215 -0.013373468 0.60999966 1.0786889e-38
0.50817716 -0.013454743 0.60999966 1.0786889e-38
0.51189601 -0.013563666 0.60999978 1.0786889e-38
0.51469958 -0.013645779 0.60999972 1.0786889e-38
0.51751745 -0.013728311 0.60999972 1.0786889e-38
0.520347 -0.013811186 0.60999978 1.0786889e-38
0.52319109 -0.013894486 0.60999978 1.0786889e-38
0.52700305 -0.014006134 0.60999978 1.0879084e-38
0.52987671 -0.014090301 0.60999984 1.0879084e-38
0.53244382 -0.013891223 0.6099999 1.0879084e-38
0.53566623 -0.013435785 0.6099999 1.0879084e-38
0.53858221 -0.013519246 0.6099999 1.0879084e-38
0.5415104 -0.013603061 0.6099999 1.0879084e-38
0.54445398 -0.012857382 0.6099999 1.0879084e-38
0.54741001 -0.012940023 0.60999995 1.0879084e-38
0.55038166 -0.013023103 0.61000001 1.0879084e-38
0.55336589 -0.013106536 0.61000001 1.0879084e-38
0.55636597 -0.01319041 0.61000001 1.0879084e-38
0.5593788 -0.013274642 0.61000001 1.0879084e-38
0.56240767 -0.013359323 0.61000001 1.0879084e-38
0.56544948 -0.013444366 0.61000007 1.0879084e-38
0.56850761 -0.013529864 0.61000013 1.0879084e-38
0.57157886 -0.013615729 0.61000013 1.0879084e-38
0.57466674 -0.013702058 0.61000013 1.0879084e-38
0.57776797 -0.013788758 0.61000019 1.0879084e-38
0.58088589 -0.01387593 0.61000019 1.0879084e-38
0.58401734 -0.01396348 0.61000019 1.0879084e-38
0.58611411 -0.014022099 0.61000019 1.0879084e-38
0.58892107 -0.013813753 0.61000019 1.0879084e-38
0.59244543 -0.013337225 0.61000025 1.0879084e-38
0.59563541 -0.013424288 0.61000025 1.0879084e-38
0.59883934 -0.013511728 0.61000031 1.0879084e-38
0.60098475 -0.013570279 0.61000031 1.0879084e-38
0.60421693 -0.013658496 0.61000031 1.0879084e-38
0.60746348 -0.01287522 0.61000037 1.0879084e-38
0.61072797 -0.012962139 0.61000037 1.0879084e-38
0.61400694 -0.013049446 0.61000037 1.0879084e-38
0.61620265 -0.013107911 0.61000037 1.0879084e-38
0.61951089 -0.013195998 0.61000043 1.0879084e-38
0.62283397 -0.013284478 0.61000049 1.0879084e-38
0.62505925 -0.013343729 0.61000043 1.0879084e-38
0.62841219 -0.013433005 0.61000049 1.0879084e-38
0.63178015 -0.013522683 0.61000049 1.0879084e-38
0.63403559 -0.013582736 0.61000055 1.0879084e-38
0.63743407 -0.013673227 0.61000049 1.0879084e-38
0.64084798 -0.013764124 0.61000061 1.0879084e-38
0.64313418 -0.013824997 0.61000061 1.0879084e-38
0.64657921 -0.01391673 0.61000061 1.0879084e-38
0.65003991 -0.014008876 0.61000067 1.0879084e-38
0.65235752 -0.014070587 0.61000067 1.0879084e-38
0.65468317 -0.013229199 0.61000067 1.0879084e-38
0.65818763 -0.013320174 0.61000073 1.0879084e-38
0.66170824 -0.013411574 0.61000073 1.0879084e-38
0.66406608 -0.013472784 0.61000073 1.0879084e-38
0.66761923 -0.013565026 0.61000079 1.0879084e-38
0.67118883 -0.013657697 0.61000085 1.0879084e-38
0.67357969 -0.013719767 0.61000073 1.0879084e-38
0.67597884 -0.01378205 0.61000085 1.0879084e-38
0.67959428 -0.012956017 0.61000085 1.0879084e-38
0.68322664 -0.013047896 0.61000085 1.0879084e-38
0.68565959 -0.013109438 0.61000091 1.0879084e-38
0.68810105 -0.013171194 0.61000091 1.0879084e-38
0.6905511 -0.013233168 0.61000097 1.0879084e-38
0.69424355 -0.01332657 0.61000091 1.0879084e-38
0.6979534 -0.01342041 0.61000103 1.0879084e-38
0.70043844 -0.013483271 0.61000097 1.0879084e-38
0.70293224 -0.013546349 0.61000097 1.0879084e-38
0.70669067 -0.013641422 0.61000103 1.0879084e-38
0.71046698 -0.013736941 0.61000109 1.0879084e-38
0.71299666 -0.01380093 0.61000103 1.0879084e-38
0.7155354 -0.013865149 0.61000109 1.0879084e-38
0.7180832 -0.013929594 0.61000109 1.0879084e-38
0.72064012 -0.013994271 0.61000109 1.0879084e-38
0.7244941 -0.013141975 0.61000109 1.0879084e-38
0.72836661 -0.013237353 0.61000115 1.0879084e-38
0.73096079 -0.013301246 0.61000121 1.0879084e-38
0.73356438 -0.013365373 0.61000121 1.0879084e-38
0.73617744 -0.013429727 0.61000121 1.0879084e-38
0.73880005 -0.01349432 0.61000127 1.0879084e-38
0.74143219 -0.013559151 0.61000127 1.0879084e-38
0.74539977 -0.01365687 0.61000133 1.0879084e-38
0.74938673 -0.013755064 0.61000133 1.0879084e-38
0.75205785 -0.013820853 0.61000133 1.0879084e-38
0.75473875 -0.013886884 0.61000133 1.0879084e-38
0.75742948 -0.012981446 0.61000139 1.0879084e-38
0.76013023 -0.013046168 0.61000139 1.0879084e-38
0.76284099 -0.013111128 0.61000139 1.0879084e-38
0.76556182 -0.013176328 0.61000139 1.0879084e-38
0.76829273 -0.013241772 0.61000144 1.0879084e-38
0.7724095 -0.013340424 0.6100015 1.0879084e-38
0.7765469 -0.013439571 0.6100015 1.0879084e-38
0.77931887 -0.013505997 0.6100015 1.0879084e-38
0.78210127 -0.013572674 0.61000156 1.0879084e-38
0.78489417 -0.013639603 0.61000156 1.0879084e-38
0.78769761 -0.013706783 0.61000162 1.0879084e-38
0.79051155 -0.013774218 0.61000156 1.0879084e-38
0.79333621 -0.013841907 0.61000162 1.0879084e-38
0.79617161 -0.013909852 0.61000162 1.0879084e-38
0.79901773 -0.013978055 0.61000168 1.0879084e-38
0.80187464 -0.013045225 0.61000174 1.0879084e-38
0.80474257 -0.013112042 0.61000168 1.0879084e-38
0.8076213 -0.013179112 0.61000174 1.0879084e-38
0.81051123 -0.013246443 0.61000168 1.0879084e-38
0.81341213 -0.013314027 0.61000174 1.0879084e-38
0.81632423 -0.013381872 0.61000174 1.0879084e-38
0.81924748 -0.013449978 0.6100018 1.0879084e-38
0.822182 -0.013518348 0.61000186 1.0879084e-38
0.82512784 -0.013586979 0.61000186 1.0879084e-38
0.82808512 -0.013655879 0.61000186 1.0879084e-38
0.83105397 -0.013725046 0.61000192 1.0879084e-38
0.83403426 -0.013794482 0.61000186 1.0879084e-38
0.83702624 -0.013864189 0.61000192 1.0879084e-38
0.84002978 -0.013934165 0.61000198 1.0879084e-38
0.84304512 -0.01400442 0.61000192 1.0879084e-38
0.84607232 -0.013044233 0.61000198 1.0879084e-38
0.84911132 -0.013113013 0.61000198 1.0879084e-38
0.85216224 -0.013182063 0.61000204 1.0879084e-38
0.85522527 -0.013251387 0.6100021 1.0879084e-38
0.85830039 -0.013320984 0.61000204 1.0879084e-38
0.86138773 -0.013390856 0.6100021 1.0879084e-38
0.86448717 -0.013461005 0.61000216 1.0879084e-38
0.86759907 -0.013531433 0.61000216 1.0879084e-38
0.33182278 -0.010747731 0.6099984 1.0786889e-38
0.33502102 -0.010454752 0.60999846 1.0786889e-38
0.33775088 -0.010540158 0.60999852 1.0786889e-38
0.34035757 -0.010343859 0.60999858 1.0786889e-38
0.34325397 -0.01001632 0.60999858 1.0786889e-38
0.34602734 -0.010101246 0.60999858 1.0786889e-38
0.34951568 -0.01020806 0.60999864 1.0786889e-38
0.3530257 -0.010315538 0.60999858 1.0786889e-38
0.35585126 -0.010402059 0.6099987 1.0786889e-38
0.35869205 -0.010489045 0.6099987 1.0786889e-38
0.36154813 -0.010576496 0.6099987 1.0786889e-38
0.36441958 -0.010664422 0.6099987 1.0786889e-38
0.36730653 -0.010752821 0.60999876 1.0786889e-38
0.37020922 -0.010841703 0.60999876 1.0786889e-38
0.37312773 -0.010931067 0.60999876 1.0786889e-38
0.3760621 -0.011020918 0.60999882 1.0786889e-38
0.37901253 -0.011111263 0.60999882 1.0786889e-38
0.38197914 -0.010480314 0.60999888 1.0786889e-38
0.38481259 -0.010275481 0.60999888 1.0786889e-38
0.38796163 -0.0099337492 0.60999888 1.0786889e-38
0.39097759 -0.010022087 0.60999894 1.0786889e-38
0.39401031 -0.010110914 0.60999894 1.0786889e-38
0.39705995 -0.010200233 0.60999894 1.0786889e-38
0.40012661 -0.010290052 0.60999894 1.0786889e-38
0.40321034 -0.010380373 0.609999 1.0786889e-38
0.40631151 -0.010471201 0.60999894 1.0786889e-38
0.40943003 -0.010562539 0.609999 1.0786889e-38
0.41256618 -0.010654394 0.609999 1.0786889e-38
0.41571999 -0.010746767 0.60999906 1.0786889e-38
0.41889176 -0.010839664 0.60999912 1.0786889e-38
0.42208159 -0.010933091 0.60999912 1.0786889e-38
0.42448533 -0.011003494 0.60999918 1.0786889e-38
0.42690045 -0.011074232 0.60999918 1.0786889e-38
0.43013605 -0.011169 0.60999918 1.0786889e-38
0.43339029 -0.010507762 0.60999918 1.0786889e-38
0.43666321 -0.0098438021 0.60999918 1.0786889e-38
0.43995512 -0.0099358344 0.60999918 1.0786889e-38
0.44243592 -0.010005193 0.6099993 1.0786889e-38
0.44492874 -0.010074886 0.6099993 1.0786889e-38
0.44826871 -0.010168264 0.6099993 1.0786889e-38
0.45162803 -0.010262183 0.60999936 1.0786889e-38
0.45500714 -0.010356655 0.6099993 1.0786889e-38
0.4575538 -0.010427855 0.60999936 1.0786889e-38
0.46011302 -0.010499403 0.60999942 1.0786889e-38
0.46354207 -0.010595272 0.60999942 1.0786889e-38
0.46699136 -0.010691707 0.60999942 1.0786889e-38
0.46959114 -0.01076439 0.60999942 1.0786889e-38
0.47220379 -0.010837433 0.60999942 1.0786889e-38
0.47570461 -0.010935307 0.60999954 1.0786889e-38
0.47834331 -0.01100908 0.60999948 1.0786889e-38
0.48099515 -0.01108322 0.60999954 1.0786889e-38
0.48454869 -0.011182568 0.60999954 1.0786889e-38
0.48722714 -0.010465607 0.60999954 1.0786889e-38
0.48991916 -0.010539077 0.60999954 1.0786889e-38
0.49352655 -0.0098414943 0.6099996 1.0786889e-38
0.49624583 -0.0099138981 0.6099996 1.0786889e-38
0.49897879 -0.009986667 0.60999966 1.0786889e-38
0.50264126 -0.010084187 0.60999966 1.0786889e-38
0.50540215 -0.010157699 0.60999966 1.0786889e-38
0.50817716 -0.010231585 0.60999966 1.0786889e-38
0.51189601 -0.010330606 0.60999978 1.0786889e-38
0.51469958 -0.010405254 0.60999972 1.0786889e-38
0.51751745 -0.010480284 0.60999972 1.0786889e-38
0.520347 -0.010555625 0.60999972 1.0786889e-38
0.52319109 -0.010631352 0.60999978 1.0786889e-38
0.52700305 -0.010732849 0.60999978 1.0786889e-38
0.52987671 -0.010809366 0.60999984 1.0879084e-38
0.53276551 -0.010886283 0.6099999 1.0879084e-38
0.53566623 -0.01096352 0.6099999 1.0879084e-38
0.53858221 -0.011041162 0.6099999 1.0879084e-38
0.5415104 -0.011119129 0.6099999 1.0879084e-38
0.54445398 -0.010367569 0.6099999 1.0879084e-38
0.54741001 -0.01044431 0.60999995 1.0879084e-38
0.55038166 -0.010521455 0.61000001 1.0879084e-38
0.55336589 -0.010598928 0.61000001 1.0879084e-38
0.55669999 -0.010126459 0.61000007 1.0879084e-38
0.5593788 -0.0099151535 0.61000001 1.0879084e-38
0.56240767 -0.0099917687 0.61000007 1.0879084e-38
0.56544948 -0.010068714 0.61000007 1.0879084e-38
0.56850761 -0.010146068 0.61000013 1.0879084e-38
0.57157886 -0.010223756 0.61000013 1.0879084e-38
0.5746668 -0.010301865 0.61000013 1.0879084e-38
0.57776797 -0.010380307 0.61000019 1.0879084e-38
0.58088583 -0.010459176 0.61000019 1.0879084e-38
0.58401734 -0.010538388 0.61000019 1.0879084e-38
0.58611411 -0.010591425 0.61000019 1.0879084e-38
0.58927286 -0.010671325 0.61000019 1.0879084e-38
0.59244543 -0.010751575 0.61000025 1.0879084e-38
0.59563541 -0.010832267 0.61000025 1.0879084e-38
0.5988394 -0.010913311 0.61000025 1.0879084e-38
0.60098475 -0.010967577 0.61000031 1.0879084e-38
0.60421693 -0.011049338 0.61000031 1.0879084e-38
0.60746348 -0.010259576 0.61000037 1.0879084e-38
0.61072791 -0.010339979 0.61000037 1.0879084e-38
0.61400694 -0.01042074 0.61000037 1.0879084e-38
0.61620265 -0.01047482 0.61000037 1.0879084e-38
0.61951089 -0.010556299 0.61000043 1.0879084e-38
0.62283397 -0.010638144 0.61000049 1.0879084e-38
0.62505925 -0.01069295 0.61000043 1.0879084e-38
0.62878555 -0.01019368 0.61000049 1.0879084e-38
0.63178015 -0.0099704154 0.61000049 1.0879084e-38
0.63403559 -0.010024466 0.61000055 1.0879084e-38
0.63743407 -0.010105908 0.61000049 1.0879084e-38
0.64084798 -0.010187712 0.61000061 1.0879084e-38
0.64313418 -0.010242499 0.61000061 1.0879084e-38
0.64657921 -0.010325058 0.61000061 1.0879084e-38
0.65003991 -0.01040799 0.61000067 1.0879084e-38
0.65235752 -0.01046353 0.61000067 1.0879084e-38
0.65468317 -0.010519259 0.61000067 1.0879084e-38
0.65818763 -0.010603241 0.61000067 1.0879084e-38
0.66170824 -0.010687606 0.61000073 1.0879084e-38
0.66406608 -0.010744108 0.61000073 1.0879084e-38
0.66761923 -0.010829255 0.61000079 1.0879084e-38
0.67118883 -0.010914801 0.61000085 1.0879084e-38
0.67357969 -0.010972096 0.61000073 1.0879084e-38
0.67597884 -0.011029586 0.61000085 1.0879084e-38
0.67959428 -0.010196332 0.61000085 1.0879084e-38
0.68322664 -0.010280959 0.61000085 1.0879084e-38
0.68565959 -0.010337643 0.61000091 1.0879084e-38
0.68810105 -0.010394521 0.61000091 1.0879084e-38
0.6905511 -0.010451604 0.61000097 1.0879084e-38
0.69424355 -0.010537632 0.61000091 1.0879084e-38
0.6979534 -0.010624062 0.61000103 1.0879084e-38
0.70043844 -0.010681961 0.61000097 1.0879084e-38
0.70293224 -0.01074006 0.61000097 1.0879084e-38
0.70669067 -0.010827627 0.61000103 1.0879084e-38
0.7104671 -0.0099751605 0.61000103 1.0879084e-38
0.71299666 -0.010032411 0.61000103 1.0879084e-38
0.7155354 -0.010089868 0.61000109 1.0879084e-38
0.7180832 -0.010147532 0.61000109 1.0879084e-38
0.72064012 -0.010205403 0.61000109 1.0879084e-38
0.7244941 -0.010292627 0.61000109 1.0879084e-38
0.72836661 -0.010380274 0.61000115 1.0879084e-38
0.73096079 -0.010438982 0.61000121 1.0879084e-38
0.73356438 -0.010497911 0.61000121 1.0879084e-38
0.73617744 -0.010557048 0.61000121 1.0879084e-38
0.73880005 -0.010616405 0.61000127 1.0879084e-38
0.74143219 -0.010675978 0.61000127 1.0879084e-38
0.74539977 -0.010765773 0.61000133 1.0879084e-38
0.74938673 -0.010856006 0.61000133 1.0879084e-38
0.75205785 -0.010916462 0.61000133 1.0879084e-38
0.75473875 -0.010977136 0.61000133 1.0879084e-38
0.75742948 -0.010066327 0.61000139 1.0879084e-38
0.76013023 -0.010125656 0.61000139 1.0879084e-38
0.76284099 -0.010185201 0.61000139 1.0879084e-38
0.76556182 -0.010244969 0.61000139 1.0879084e-38
0.76829273 -0.010304958 0.61000144 1.0879084e-38
0.7724095 -0.010395389 0.6100015 1.0879084e-38
0.7765469 -0.010486275 0.6100015 1.0879084e-38
0.77931887 -0.010547165 0.6100015 1.0879084e-38
0.78210127 -0.010608286 0.61000156 1.0879084e-38
0.78489417 -0.010669637 0.61000156 1.0879084e-38
0.78769761 -0.01073122 0.61000162 1.0879084e-38
0.79051155 -0.010793034 0.61000156 1.0879084e-38
0.79333621 -0.010855082 0.61000162 1.0879084e-38
0.79617161 -0.010917366 0.61000162 1.0879084e-38
0.79901773 -0.010979887 0.61000168 1.0879084e-38
0.80187464 -0.010041351 0.61000174 1.0879084e-38
0.80474257 -0.010102442 0.61000168 1.0879084e-38
0.8076213 -0.010163762 0.61000174 1.0879084e-38
0.81051123 -0.01022532 0.61000168 1.0879084e-38
0.81341213 -0.010287112 0.61000174 1.0879084e-38
0.81632423 -0.010349143 0.61000174 1.0879084e-38
0.81924748 -0.01041141 0.6100018 1.0879084e-38
0.822182 -0.01047392 0.61000186 1.0879084e-38
0.82512784 -0.010536669 0.61000186 1.0879084e-38
0.82808512 -0.010599662 0.61000186 1.0879084e-38
0.83105397 -0.010662902 0.61000192 1.0879084e-38
0.83403426 -0.010726387 0.61000186 1.0879084e-38
0.83702624 -0.010790117 0.61000192 1.0879084e-38
0.84002978 -0.010854095 0.61000198 1.0879084e-38
0.84304512 -0.010918327 0.61000192 1.0879084e-38
0.84607232 -0.0099520981 0.61000198 1.0879084e-38
0.84911132 -0.01001481 0.61000198 1.0879084e-38
0.85216224 -0.010077763 0.61000204 1.0879084e-38
0.85522527 -0.01014097 0.6100021 1.0879084e-38
0.85830039 -0.010204431 0.61000204 1.0879084e-38
0.86138773 -0.010268137 0.6100021 1.0879084e-38
0.86448717 -0.010332096 0.61000216 1.0879084e-38
0.86759907 -0.010396309 0.61000216 1.0879084e-38
0.33146039 -0.0074184365 0.60999846 1.0786889e-38
0.33502102 -0.0070021199 0.60999846 1.0786889e-38
0.33775085 -0.0070784395 0.60999852 1.0786889e-38
0.34049511 -0.0071551632 0.60999858 1.0786889e-38
0.34325391 -0.0072322926 0.60999858 1.0786889e-38
0.34602737 -0.0073098317 0.60999858 1.0786889e-38
0.34951568 -0.0074073556 0.60999864 1.0786889e-38
0.35302573 -0.0075054886 0.6099987 1.0786889e-38
0.35585126 -0.0075844857 0.6099987 1.0786889e-38
0.35869205 -0.0076639066 0.6099987 1.0786889e-38
0.36154813 -0.0077437554 0.6099987 1.0786889e-38
0.36441958 -0.0078240354 0.6099987 1.0786889e-38
0.36730659 -0.0079047475 0.60999876 1.0786889e-38
0.37020922 -0.0079858992 0.60999876 1.0786889e-38
0.3731277 -0.0080674943 0.60999876 1.0786889e-38
0.3762092 -0.0077226437 0.60999882 1.0786889e-38
0.3790125 -0.0075122095 0.60999876 1.0786889e-38
0.38197917 -0.0068713911 0.60999882 1.0786889e-38
0.38496214 -0.0069508161 0.60999882 1.0786889e-38
0.38796163 -0.0070306803 0.60999894 1.0786889e-38
0.39097756 -0.0071109855 0.60999894 1.0786889e-38
0.39401034 -0.0071917363 0.60999894 1.0786889e-38
0.39705995 -0.0072729369 0.60999894 1.0786889e-38
0.40012658 -0.0073545901 0.60999894 1.0786889e-38
0.40321034 -0.0074366997 0.609999 1.0786889e-38
0.40631148 -0.0075192708 0.60999894 1.0786889e-38
0.40943 -0.0076023056 0.609999 1.0786889e-38
0.41256613 -0.0076858113 0.609999 1.0786889e-38
0.41571999 -0.0077697872 0.60999906 1.0786889e-38
0.41889173 -0.0078542409 0.60999906 1.0786889e-38
0.42208159 -0.0079391748 0.60999906 1.0786889e-38
0.42448533 -0.0080031762 0.60999918 1.0786889e-38
0.42690045 -0.0080674849 0.60999918 1.0786889e-38
0.43013608 -0.008153636 0.60999918 1.0786889e-38
0.43311834 -0.0079808598 0.60999918 1.0786889e-38
0.43666321 -0.00681106 0.60999924 1.0786889e-38
0.43995509 -0.0068943277 0.60999918 1.0786889e-38
0.44243592 -0.0069570802 0.6099993 1.0786889e-38
0.44492877 -0.0070201377 0.6099993 1.0786889e-38
0.44826868 -0.0071046199 0.6099993 1.0786889e-38
0.45162803 -0.0071895961 0.6099993 1.0786889e-38
0.45500714 -0.0072750701 0.6099993 1.0786889e-38
0.4575538 -0.0073394878 0.60999936 1.0786889e-38
0.46011305 -0.0074042231 0.60999942 1.0786889e-38
0.46354204 -0.0074909613 0.60999942 1.0786889e-38
0.46699136 -0.0075782114 0.60999942 1.0786889e-38
0.46959114 -0.0076439735 0.60999942 1.0786889e-38
0.47220379 -0.0077100596 0.60999942 1.0786889e-38
0.47570461 -0.0077986126 0.60999954 1.0786889e-38
0.47834334 -0.00786536 0.60999948 1.0786889e-38
0.48099518 -0.0079324376 0.60999954 1.0786889e-38
0.48454872 -0.0080223251 0.60999954 1.0786889e-38
0.48722717 -0.0080900779 0.60999954 1.0786889e-38
0.48991913 -0.0081581697 0.6099996 1.0786889e-38
0.49352655 -0.0074533829 0.6099996 1.0786889e-38
0.4962458 -0.0075203553 0.60999966 1.0786889e-38
0.49928308 -0.0070616459 0.60999966 1.0786889e-38
0.50264126 -0.0068757688 0.60999966 1.0786889e-38
0.50540215 -0.0069419295 0.60999966 1.0786889e-38
0.50817716 -0.0070084282 0.60999966 1.0786889e-38
0.51189601 -0.0070975469 0.60999972 1.0786889e-38
0.51469958 -0.0071647298 0.60999972 1.0786889e-38
0.51751745 -0.0072322558 0.60999972 1.0786889e-38
0.520347 -0.007300064 0.60999972 1.0786889e-38
0.52319109 -0.0073682191 0.60999978 1.0786889e-38
0.52700293 -0.0074595646 0.60999978 1.0786889e-38
0.52987671 -0.0075284308 0.60999984 1.0786889e-38
0.53276551 -0.0075976551 0.6099999 1.0879084e-38
0.53566623 -0.007667169 0.6099999 1.0879084e-38
0.53858227 -0.007737048 0.6099999 1.0879084e-38
0.5415104 -0.0078072175 0.6099999 1.0879084e-38
0.54445398 -0.0078777559 0.60999995 1.0879084e-38
0.54741001 -0.0079485932 0.60999995 1.0879084e-38
0.55038166 -0.008019805 0.61000001 1.0879084e-38
0.55336589 -0.0080913175 0.61000001 1.0879084e-38
0.55603194 -0.0078756949 0.61000001 1.0879084e-38
0.5593788 -0.0073955376 0.61000001 1.0879084e-38
0.56240761 -0.0074661039 0.61000013 1.0879084e-38
0.56544948 -0.0075369738 0.61000007 1.0879084e-38
0.56850761 -0.0076082228 0.61000013 1.0879084e-38
0.57157892 -0.0076797791 0.61000007 1.0879084e-38
0.57466674 -0.0069016712 0.61000013 1.0879084e-38
0.57776797 -0.0069718566 0.61000019 1.0879084e-38
0.58088583 -0.0070424238 0.61000019 1.0879084e-38
0.58401734 -0.0071132984 0.61000019 1.0879084e-38
0.58611411 -0.0071607539 0.61000019 1.0879084e-38
0.58927286 -0.0072322427 0.61000025 1.0879084e-38
0.59244543 -0.0073040463 0.61000025 1.0879084e-38
0.59563535 -0.0073762438 0.61000025 1.0879084e-38
0.5988394 -0.0074487571 0.61000025 1.0879084e-38
0.60098475 -0.0074973106 0.61000031 1.0879084e-38
0.60421699 -0.0075704646 0.61000031 1.0879084e-38
0.60746348 -0.0076439409 0.61000037 1.0879084e-38
0.61072791 -0.0077178241 0.61000037 1.0879084e-38
0.61400694 -0.0077920342 0.61000037 1.0879084e-38
0.61620265 -0.0078417296 0.61000037 1.0879084e-38
0.61951089 -0.0079166042 0.61000043 1.0879084e-38
0.62283397 -0.0079918113 0.61000049 1.0879084e-38
0.62505925 -0.0080421753 0.61000043 1.0879084e-38
0.62803882 -0.0078140851 0.61000049 1.0879084e-38
0.63178015 -0.0073062181 0.61000049 1.0879084e-38
0.63403559 -0.0073557626 0.61000055 1.0879084e-38
0.63743412 -0.0074304184 0.61000049 1.0879084e-38
0.64084798 -0.0075054076 0.61000061 1.0879084e-38
0.64313418 -0.0075556301 0.61000061 1.0879084e-38
0.64657921 -0.0076313047 0.61000061 1.0879084e-38
0.65003991 -0.0077073257 0.61000067 1.0879084e-38
0.65235752 -0.0077582374 0.61000067 1.0879084e-38
0.65468317 -0.0069060102 0.61000067 1.0879084e-38
0.65818763 -0.0069806599 0.61000067 1.0879084e-38
0.66170824 -0.0070556523 0.61000073 1.0879084e-38
0.66406608 -0.0071058767 0.61000073 1.0879084e-38
0.66761929 -0.0071815625 0.61000079 1.0879084e-38
0.67118883 -0.0072575985 0.61000085 1.0879084e-38
0.67357969 -0.0073085278 0.61000073 1.0879084e-38
0.67597884 -0.0073596304 0.61000085 1.0879084e-38
0.67959428 -0.0074366452 0.61000085 1.0879084e-38
0.68322664 -0.0075140176 0.61000085 1.0879084e-38
0.68565959 -0.007565842 0.61000091 1.0879084e-38
0.68810105 -0.0076178471 0.61000091 1.0879084e-38
0.6905511 -0.0076700356 0.61000097 1.0879084e-38
0.69424355 -0.00774869 0.61000091 1.0879084e-38
0.6979534 -0.0078277132 0.61000103 1.0879084e-38
0.70043844 -0.0078806477 0.61000097 1.0879084e-38
0.70293224 -0.0079337675 0.61000097 1.0879084e-38
0.70669067 -0.0080138277 0.61000103 1.0879084e-38
0.7104671 -0.007153824 0.61000103 1.0879084e-38
0.71299666 -0.0072060227 0.61000103 1.0879084e-38
0.7155354 -0.0072584096 0.61000109 1.0879084e-38
0.7180832 -0.0073109847 0.61000109 1.0879084e-38
0.72064012 -0.0073637497 0.61000109 1.0879084e-38
0.7244941 -0.0074432781 0.61000109 1.0879084e-38
0.72836661 -0.0075231902 0.61000115 1.0879084e-38
0.73096079 -0.0075767189 0.61000121 1.0879084e-38
0.73356438 -0.0076304488 0.61000121 1.0879084e-38
0.73617744 -0.0076843686 0.61000121 1.0879084e-38
0.73880005 -0.0077384859 0.61000127 1.0879084e-38
0.74143219 -0.0077928025 0.61000127 1.0879084e-38
0.74539977 -0.0078746751 0.61000133 1.0879084e-38
0.74938679 -0.0069905957 0.61000133 1.0879084e-38
0.75205785 -0.0070439363 0.61000133 1.0879084e-38
0.75473875 -0.0070974743 0.61000133 1.0879084e-38
0.75742948 -0.0071512088 0.61000139 1.0879084e-38
0.76013023 -0.0072051426 0.61000139 1.0879084e-38
0.76284099 -0.0072592758 0.61000139 1.0879084e-38
0.76556182 -0.0073136101 0.61000139 1.0879084e-38
0.76829273 -0.0073681455 0.61000144 1.0879084e-38
0.7724095 -0.0074503557 0.6100015 1.0879084e-38
0.7765469 -0.0075329784 0.6100015 1.0879084e-38
0.77931887 -0.0075883344 0.6100015 1.0879084e-38
0.78210127 -0.0076438989 0.61000156 1.0879084e-38
0.78489417 -0.0076996721 0.61000156 1.0879084e-38
0.78769761 -0.0077556558 0.61000162 1.0879084e-38
0.79051155 -0.0078118509 0.61000156 1.0879084e-38
0.79333621 -0.0078682583 0.61000162 1.0879084e-38
0.79617161 -0.0079248799 0.61000162 1.0879084e-38
0.79901773 -0.0079817167 0.61000168 1.0879084e-38
0.80187464 -0.0070374757 0.61000174 1.0879084e-38
0.80474257 -0.0070928391 0.61000168 1.0879084e-38
0.8076213 -0.0071484093 0.61000174 1.0879084e-38
0.81051123 -0.0072041973 0.61000168 1.0879084e-38
0.81341213 -0.0072601959 0.61000174 1.0879084e-38
0.81632423 -0.0073164124 0.61000174 1.0879084e-38
0.81924748 -0.0073728412 0.6100018 1.0879084e-38
0.822182 -0.0074294917 0.61000186 1.0879084e-38
0.82512784 -0.0074863583 0.61000186 1.0879084e-38
0.82808512 -0.0075434446 0.61000186 1.0879084e-38
0.83105397 -0.0076007564 0.61000192 1.0879084e-38
0.83403426 -0.0076582897 0.61000186 1.0879084e-38
0.83702624 -0.0077160466 0.61000192 1.0879084e-38
0.84002978 -0.0077740252 0.61000198 1.0879084e-38
0.84304512 -0.0078322366 0.61000192 1.0879084e-38
0.84607232 -0.0078906715 0.61000198 1.0879084e-38
0.84911132 -0.0079493374 0.61000198 1.0879084e-38
0.85216224 -0.0080082323 0.61000204 1.0879084e-38
0.85522527 -0.008067362 0.6100021 1.0879084e-38
0.85830039 -0.0070878733 0.61000204 1.0879084e-38
0.86138773 -0.0071454151 0.6100021 1.0879084e-38
0.86448717 -0.0072031841 0.61000216 1.0879084e-38
0.86759907 -0.007261184 0.61000216 1.0879084e-38
0.33162948 -0.0041542239 0.60999846 1.0786889e-38
0.33502102 -0.0042400141 0.60999846 1.0786889e-38
0.33775091 -0.0043090656 0.60999852 1.0786889e-38
0.34049514 -0.0043784818 0.60999858 1.0786889e-38
0.34325391 -0.0044482653 0.60999858 1.0786889e-38
0.34602737 -0.0045184195 0.60999858 1.0786889e-38
0.34951568 -0.0046066558 0.60999864 1.0786889e-38
0.35302573 -0.004695443 0.60999864 1.0786889e-38
0.35585126 -0.0047669164 0.6099987 1.0786889e-38
0.35869205 -0.0048387735 0.6099987 1.0786889e-38
0.36154813 -0.0049110167 0.6099987 1.0786889e-38
0.36441958 -0.004983651 0.6099987 1.0786889e-38
0.36730659 -0.0050566774 0.60999876 1.0786889e-38
0.37035474 -0.0047051208 0.6099987 1.0786889e-38
0.3731277 -0.0044880309 0.60999876 1.0786889e-38
0.37591496 -0.0042693452 0.60999882 1.0786889e-38
0.37901253 -0.0039131604 0.60999882 1.0786889e-38
0.3819792 -0.0039842529 0.60999882 1.0786889e-38
0.38496214 -0.0040557352 0.60999888 1.0786889e-38
0.38796163 -0.0041276137 0.60999888 1.0786889e-38
0.39097759 -0.0041998881 0.60999888 1.0786889e-38
0.39401034 -0.0042725638 0.60999894 1.0786889e-38
0.39705998 -0.0043456443 0.60999894 1.0786889e-38
0.40012661 -0.0044191331 0.60999894 1.0786889e-38
0.40321037 -0.0044930307 0.60999894 1.0786889e-38
0.40631151 -0.0045673447 0.60999894 1.0786889e-38
0.40943 -0.0046420759 0.609999 1.0786889e-38
0.41256616 -0.0047172322 0.609999 1.0786889e-38
0.41572002 -0.0047928104 0.60999906 1.0786889e-38
0.41889176 -0.004868818 0.60999912 1.0786889e-38
0.42208159 -0.0049452591 0.60999906 1.0786889e-38
0.42448533 -0.00500286 0.60999918 1.0786889e-38
0.42690045 -0.0050607366 0.60999918 1.0786889e-38
0.43013605 -0.0051382738 0.60999918 1.0786889e-38
0.43339029 -0.0052162581 0.60999918 1.0786889e-38
0.43666321 -0.0037783175 0.60999924 1.0786889e-38
0.43995512 -0.003852821 0.60999918 1.0786889e-38
0.44243592 -0.0039089676 0.6099993 1.0786889e-38
0.44492874 -0.0039653867 0.60999924 1.0786889e-38
0.44826871 -0.0040409775 0.60999924 1.0786889e-38
0.45162803 -0.0041170078 0.60999936 1.0786889e-38
0.45500714 -0.0041934843 0.6099993 1.0786889e-38
0.4575538 -0.0042511215 0.60999936 1.0786889e-38
0.46011302 -0.0043090424 0.60999942 1.0786889e-38
0.46354207 -0.0043866504 0.60999942 1.0786889e-38
0.46699136 -0.0044647171 0.60999942 1.0786889e-38
0.46959114 -0.0045235548 0.60999948 1.0786889e-38
0.47220379 -0.0045826854 0.60999948 1.0786889e-38
0.47570467 -0.0046619182 0.60999954 1.0786889e-38
0.47834337 -0.0047216397 0.60999948 1.0786889e-38
0.48099518 -0.0047816564 0.60999954 1.0786889e-38
0.48454869 -0.0048620813 0.60999948 1.0786889e-38
0.48722714 -0.004922701 0.60999954 1.0786889e-38
0.48991913 -0.0049836272 0.6099996 1.0786889e-38
0.49352652 -0.0050652716 0.6099996 1.0786889e-38
0.4962458 -0.0051268134 0.60999966 1.0786889e-38
0.49867451 -0.0049150237 0.60999966 1.0786889e-38
0.50264132 -0.0044694562 0.60999966 1.0786889e-38
0.50540215 -0.004530102 0.60999966 1.0786889e-38
0.50817716 -0.0045910608 0.60999966 1.0786889e-38
0.51189601 -0.0038644876 0.60999972 1.0786889e-38
0.51469958 -0.0039242059 0.60999972 1.0786889e-38
0.51751745 -0.0039842292 0.60999972 1.0786889e-38
0.520347 -0.004044502 0.60999978 1.0786889e-38
0.52319109 -0.0041050846 0.60999978 1.0786889e-38
0.52700305 -0.0041862815 0.60999978 1.0786889e-38
0.52987671 -0.004247495 0.60999984 1.0786889e-38
0.53276545 -0.0043090284 0.6099999 1.0786889e-38
0.53566623 -0.0043708179 0.6099999 1.0786889e-38
0.53858221 -0.0044329325 0.6099999 1.0879084e-38
0.5415104 -0.0044953059 0.6099999 1.0879084e-38
0.54445398 -0.0045580068 0.60999995 1.0879084e-38
0.54741001 -0.004620973 0.60999995 1.0879084e-38
0.55038166 -0.0046842727 0.61000001 1.0879084e-38
0.55336589 -0.0047478396 0.61000001 1.0879084e-38
0.55636597 -0.0048117437 0.61000001 1.0879084e-38
0.5593788 -0.0048759207 0.61000001 1.0879084e-38
0.56240761 -0.0049404381 0.61000013 1.0879084e-38
0.56544948 -0.0050052339 0.61000007 1.0879084e-38
0.56850761 -0.0050703757 0.61000013 1.0879084e-38
0.57157892 -0.0051357988 0.61000007 1.0879084e-38
0.57466674 -0.0043515246 0.61000013 1.0879084e-38
0.57776797 -0.0044155177 0.61000019 1.0879084e-38
0.58088589 -0.0044798581 0.61000019 1.0879084e-38
0.58401734 -0.0045444798 0.61000019 1.0879084e-38
0.58611411 -0.0045877472 0.61000019 1.0879084e-38
0.58927286 -0.0046529295 0.61000025 1.0879084e-38
0.59244543 -0.0047183968 0.61000025 1.0879084e-38
0.59563535 -0.0039202175 0.61000025 1.0879084e-38
0.5988394 -0.0039841989 0.61000025 1.0879084e-38
0.60098475 -0.0040270407 0.61000031 1.0879084e-38
0.60421693 -0.0040915878 0.61000031 1.0879084e-38
0.60746348 -0.00415642 0.61000037 1.0879084e-38
0.61072791 -0.0042216112 0.61000037 1.0879084e-38
0.61400694 -0.0042870911 0.61000037 1.0879084e-38
0.61620265 -0.0043309396 0.61000037 1.0879084e-38
0.61951089 -0.0043970053 0.61000043 1.0879084e-38
0.62283397 -0.0044633653 0.61000049 1.0879084e-38
0.62505925 -0.0045078034 0.61000043 1.0879084e-38
0.62841219 -0.0045747599 0.61000049 1.0879084e-38
0.63178015 -0.0046420181 0.61000049 1.0879084e-38
0.63403559 -0.0046870587 0.61000055 1.0879084e-38
0.63743412 -0.0047549265 0.61000049 1.0879084e-38
0.64084798 -0.0048230998 0.61000061 1.0879084e-38
0.64313418 -0.0048687551 0.61000061 1.0879084e-38
0.64657921 -0.004937551 0.61000061 1.0879084e-38
0.65003991 -0.0050066607 0.61000067 1.0879084e-38
0.65235752 -0.0050529446 0.61000067 1.0879084e-38
0.65468317 -0.0041960739 0.61000067 1.0879084e-38
0.65818763 -0.0042637242 0.61000067 1.0879084e-38
0.66170824 -0.0043316856 0.61000073 1.0879084e-38
0.66406608 -0.0043772012 0.61000073 1.0879084e-38
0.66761923 -0.0044457922 0.61000079 1.0879084e-38
0.67118883 -0.0045146998 0.61000085 1.0879084e-38
0.67357969 -0.0045608543 0.61000073 1.0879084e-38
0.67597884 -0.0046071652 0.61000085 1.0879084e-38
0.67959428 -0.0046769613 0.61000085 1.0879084e-38
0.68322664 -0.0047470797 0.61000085 1.0879084e-38
0.68565959 -0.0047940463 0.61000091 1.0879084e-38
0.68810105 -0.0048411749 0.61000091 1.0879084e-38
0.6905511 -0.0039612828 0.61000097 1.0879084e-38
0.69424355 -0.0040301057 0.61000091 1.0879084e-38
0.6979534 -0.0040992508 0.61000103 1.0879084e-38
0.70043844 -0.0041455682 0.61000097 1.0879084e-38
0.70293224 -0.0041920487 0.61000097 1.0879084e-38
0.70669073 -0.0042621004 0.61000103 1.0879084e-38
0.7104671 -0.0043324875 0.61000103 1.0879084e-38
0.71299666 -0.0043796347 0.61000103 1.0879084e-38
0.7155354 -0.0044269525 0.61000109 1.0879084e-38
0.7180832 -0.0044744397 0.61000109 1.0879084e-38
0.72064012 -0.0045220982 0.61000109 1.0879084e-38
0.7244941 -0.0045939297 0.61000109 1.0879084e-38
0.72836661 -0.0046661086 0.61000115 1.0879084e-38
0.73096079 -0.0047144582 0.61000121 1.0879084e-38
0.73356438 -0.0047629867 0.61000121 1.0879084e-38
0.73617744 -0.0048116893 0.61000121 1.0879084e-38
0.73880005 -0.0048605707 0.61000127 1.0879084e-38
0.74143219 -0.0049096309 0.61000127 1.0879084e-38
0.74539977 -0.0049835793 0.61000133 1.0879084e-38
0.74938679 -0.0040915404 0.61000127 1.0879084e-38
0.75205785 -0.0041395444 0.61000133 1.0879084e-38
0.75473875 -0.0041877273 0.61000133 1.0879084e-38
0.75742948 -0.0042360891 0.61000139 1.0879084e-38
0.76013023 -0.0042846296 0.61000139 1.0879084e-38
0.76284099 -0.0043333489 0.61000139 1.0879084e-38
0.76556182 -0.0043822508 0.61000139 1.0879084e-38
0.76829273 -0.0044313334 0.61000144 1.0879084e-38
0.7724095 -0.0045053223 0.6100015 1.0879084e-38
0.7765469 -0.0045796819 0.6100015 1.0879084e-38
0.77931887 -0.0046295021 0.6100015 1.0879084e-38
0.78210127 -0.0046795104 0.61000156 1.0879084e-38
0.78489417 -0.0047297068 0.61000156 1.0879084e-38
0.78769761 -0.0047800913 0.61000162 1.0879084e-38
0.79051155 -0.0048306677 0.61000156 1.0879084e-38
0.79333621 -0.0048814341 0.61000162 1.0879084e-38
0.79617161 -0.0049323943 0.61000162 1.0879084e-38
0.79901773 -0.0049835462 0.61000168 1.0879084e-38
0.80187464 -0.0040336009 0.61000174 1.0879084e-38
0.80474257 -0.0040832367 0.61000168 1.0879084e-38
0.8076213 -0.0041330587 0.61000174 1.0879084e-38
0.81051123 -0.0041830763 0.61000168 1.0879084e-38
0.81341213 -0.0042332811 0.61000174 1.0879084e-38
0.81632423 -0.0042836824 0.61000174 1.0879084e-38
0.81924748 -0.0043342747 0.6100018 1.0879084e-38
0.822182 -0.0043850634 0.61000186 1.0879084e-38
0.82512784 -0.0044360468 0.61000186 1.0879084e-38
0.82808512 -0.0044872286 0.61000186 1.0879084e-38
0.83105397 -0.0045386106 0.61000192 1.0879084e-38
0.83403426 -0.0045901919 0.61000186 1.0879084e-38
0.83702624 -0.0046419743 0.61000192 1.0879084e-38
0.84002978 -0.004693957 0.61000198 1.0879084e-38
0.84304512 -0.0047461437 0.61000192 1.0879084e-38
0.84607232 -0.0047985353 0.61000198 1.0879084e-38
0.84911132 -0.0048511317 0.61000198 1.0879084e-38
0.85216224 -0.0049039349 0.61000204 1.0879084e-38
0.85522527 -0.0049569467 0.6100021 1.0879084e-38
0.85830039 -0.0039713178 0.61000204 1.0879084e-38
0.86138773 -0.0040226933 0.6100021 1.0879084e-38
0.86448717 -0.0040742736 0.61000216 1.0879084e-38
0.86759907 -0.0041260589 0.61000216 1.0879084e-38
0.33162948 -0.0014011491 0.60999846 1.0786889e-38
0.33502102 -0.0014779083 0.60999846 1.0786889e-38
0.33775088 -0.0015396909 0.60999852 1.0786889e-38
0.34049514 -0.0016017999 0.60999858 1.0786889e-38
0.34325391 -0.0016642371 0.60999858 1.0786889e-38
0.34602737 -0.0017270083 0.60999864 1.0786889e-38
0.34951568 -0.0018059561 0.60999864 1.0786889e-38
0.3530257 -0.0018853978 0.60999858 1.0786889e-38
0.35585129 -0.0019493476 0.6099987 1.0786889e-38
0.35869205 -0.0020136395 0.6099987 1.0786889e-38
0.36154813 -0.0020782789 0.6099987 1.0786889e-38
0.36456352 -0.0017201807 0.6099987 1.0786889e-38
0.36730659 -0.0014965897 0.6099987 1.0786889e-38
0.37006372 -0.0012713808 0.60999882 1.0786889e-38
0.37312773 -0.0009085685 0.60999876 1.0786889e-38
0.3760621 -0.00097107375 0.60999882 1.0786889e-38
0.37901253 -0.0010339208 0.60999882 1.0786889e-38
0.3819792 -0.0010971152 0.60999882 1.0786889e-38
