# .PCD v0.7 - Point Cloud Data file format
VERSION 0.7
FIELDS x y z rgb
SIZE 4 4 4 4
TYPE F F F F
COUNT 1 1 1 1
WIDTH 1010
HEIGHT 1
VIEWPOINT 0 0 0 1 0 0 0
POINTS 1010
DATA ascii
0.41558361 -1.561878 0.78482223 8.6653046e-39
0.43625924 -1.5664177 0.78522104 3.8718914e-39
0.44261965 -1.5696243 0.78626084 2.7655564e-39
-0.76341152 -1.5585072 0.78526324 2.8587834e-39
-0.75549346 -1.5544739 0.78572232 2.8587848e-39
-0.64484864 -1.5542617 0.78551733 3.4119586e-39
-0.73470324 -1.5486933 0.78538775 2.6743935e-39
-0.72514141 -1.5471785 0.78578931 2.582558e-39
-0.67465293 -1.5471994 0.78586584 2.7669493e-39
-0.66462559 -1.5487885 0.78565693 2.9509804e-39
-0.72178423 -1.7506225 0.79761517 5.5353391e-40
-0.715608 -1.7528973 0.79840499 5.5317378e-40
-0.70743102 -1.7545099 0.7995168 5.5317378e-40
-0.73011404 -1.7463769 0.79966825 6.4536941e-40
-0.72595394 -1.7484977 0.79864264 6.4536941e-40
-0.55038524 -1.7454458 0.79634982 7.0068679e-39
-0.54989946 -1.7423799 0.79407024 6.8224766e-39
-0.54941458 -1.7393191 0.79179442 6.5462499e-39
0.7732597 -1.7228409 0.7961331 2.0006452e-38
-0.54550719 -1.7146597 0.79643565 6.8228353e-39
0.49842232 -1.710664 0.79468334 1.6410822e-38
0.765293 -1.7109385 0.79827464 1.9637669e-38
-0.54455853 -1.708671 0.79194403 6.4540542e-39
-0.2022581 -1.7002468 0.79986042 1.9914256e-38
-0.19729096 -1.7003689 0.7997998 1.8162539e-38
0.50334209 -1.7043366 0.79720944 1.6410822e-38
0.75892979 -1.7025589 0.79871148 1.9268887e-38
0.76041931 -1.7043008 0.7941258 1.9268887e-38
-0.54390019 -1.695435 0.79484385 6.9146722e-39
-0.23117751 -1.691493 0.79867196 2.1850364e-38
-0.22482087 -1.6932479 0.79779392 2.1850364e-38
-0.21520098 -1.6954581 0.79668808 2.0744017e-38
-0.20537896 -1.6964017 0.79621595 2.0744017e-38
-0.19544689 -1.6965947 0.79611945 2.0098647e-38
-0.1853819 -1.6957558 0.79653913 1.8439126e-38
-0.17518826 -1.6937536 0.79754108 1.6687409e-38
-0.16833994 -1.6918651 0.79848588 1.6687409e-38
0.50871831 -1.6978409 0.79549468 1.6410822e-38
0.51251835 -1.6938795 0.79747677 1.6410822e-38
0.74864328 -1.6911645 0.79698634 1.8900104e-38
0.75432527 -1.6972919 0.79576826 1.364205e-38
-0.54556191 -1.6849365 0.79568112 6.8224766e-39
-0.24207811 -1.6828569 0.79746759 2.3509886e-38
-0.23427653 -1.6849363 0.79596072 2.3048907e-38
-0.22396757 -1.6843945 0.79484779 2.3509886e-38
-0.21406285 -1.6843945 0.79484779 2.3509886e-38
-0.20415831 -1.6843958 0.79484707 2.3509886e-38
-0.19425368 -1.6843971 0.79484653 2.3509886e-38
-0.18434918 -1.6843988 0.79484558 2.3509886e-38
-0.17444485 -1.6844025 0.79484367 2.3509886e-38
-0.16413932 -1.6850983 0.79587919 1.9637669e-38
-0.15568826 -1.6827141 0.79753959 1.6963996e-38
0.51794636 -1.6883241 0.79656178 1.6410822e-38
0.52473938 -1.6823565 0.79679567 1.6410822e-38
0.7391966 -1.6823516 0.79587436 1.8900104e-38
0.74361038 -1.6864641 0.79749572 1.8900104e-38
-0.54725921 -1.6742102 0.79446745 6.6384455e-39
-0.25302371 -1.6727022 0.79768699 2.3509886e-38
-0.24642357 -1.6763273 0.79602712 2.3509886e-38
-0.23581547 -1.6734648 0.79484683 2.3509886e-38
-0.22596259 -1.6734644 0.79484701 2.3509886e-38
-0.21610983 -1.6734648 0.79484683 2.3509886e-38
-0.20625727 -1.6734667 0.79484588 2.3509886e-38
-0.19640452 -1.6734673 0.79484558 2.3509886e-38
-0.18655188 -1.6734689 0.79484481 2.3509886e-38
-0.17505741 -1.6734732 0.7948426 2.3509886e-38
-0.16356263 -1.6734751 0.79484159 2.3509886e-38
-0.15319914 -1.6754673 0.79530519 2.0283039e-38
-0.14627202 -1.674577 0.79796493 1.4382518e-38
0.52873665 -1.6789128 0.79761016 1.6410822e-38
0.53498107 -1.6741569 0.79659897 1.6410822e-38
0.72680885 -1.6727558 0.79765922 1.834693e-38
0.73299789 -1.6774365 0.79651541 1.8439126e-38
-0.54870248 -1.6650888 0.7954362 6.6380854e-39
-0.26046291 -1.6633863 0.79813969 2.3509886e-38
-0.25516537 -1.66662 0.79612494 2.3509886e-38
-0.24473582 -1.6662401 0.79484922 2.3509886e-38
-0.23491831 -1.6662464 0.79484606 2.3509886e-38
-0.22509958 -1.6662451 0.79484671 2.3509886e-38
-0.21528129 -1.6662465 0.79484588 2.3509886e-38
-0.20546298 -1.6662482 0.7948451 2.3509886e-38
-0.1956445 -1.6662487 0.79484481 2.3509886e-38
-0.18582618 -1.6662506 0.79484385 2.3509886e-38
-0.17600809 -1.6662544 0.79484195 2.3509886e-38
-0.16618976 -1.6662565 0.79484081 2.3509886e-38
-0.15637076 -1.6662527 0.79484272 2.3509886e-38
-0.1457669 -1.6669676 0.79539704 1.89923e-38
-0.13866478 -1.664771 0.7980445 1.4105931e-38
0.54619378 -1.6666514 0.79673749 1.6410822e-38
0.55474496 -1.661869 0.79585904 1.6410822e-38
0.70821136 -1.6613679 0.79489309 1.4380702e-38
0.71510851 -1.6653152 0.7971549 1.7793757e-38
0.72128123 -1.66904 0.79709578 1.7978148e-38
-0.55094111 -1.6522141 0.79471207 6.5462499e-39
-0.54979557 -1.6581811 0.79713506 6.730281e-39
-0.26337877 -1.6544893 0.79720068 2.3509886e-38
-0.25548863 -1.655888 0.79491621 2.3509886e-38
-0.24497668 -1.6555127 0.79484797 2.3509886e-38
-0.23521 -1.6555177 0.79484516 2.3509886e-38
-0.22468491 -1.6550077 0.79484606 2.3509886e-38
-0.21404995 -1.6555194 0.79484445 2.3509886e-38
-0.20428252 -1.6555204 0.79484385 2.3509886e-38
-0.194515 -1.6555208 0.79484361 2.3509886e-38
-0.18474768 -1.6555229 0.79484248 2.3509886e-38
-0.17498057 -1.6555271 0.7948404 2.3509886e-38
-0.165213 -1.6555276 0.79484016 2.3509886e-38
-0.15544496 -1.6555241 0.79484195 2.3509886e-38
-0.14567785 -1.655529 0.79483956 2.3509886e-38
-0.13634486 -1.6549349 0.79636341 1.7056192e-38
0.55850828 -1.6598363 0.7962876 1.6410822e-38
0.56361246 -1.6574085 0.79716444 1.6410822e-38
0.5746122 -1.6529608 0.79615545 1.6410822e-38
0.58188975 -1.6505253 0.79740709 1.6410822e-38
0.68556261 -1.6517851 0.79712492 1.7056192e-38
0.69405746 -1.6548526 0.79518372 1.493424e-38
0.70249158 -1.6586599 0.79749966 1.751717e-38
-0.55441552 -1.6445287 0.79502875 6.4540542e-39
-0.26570061 -1.6457464 0.79683238 2.3509886e-38
-0.2549358 -1.6448814 0.79484773 2.3509886e-38
-0.24521911 -1.6448836 0.79484653 2.3509886e-38
-0.23550276 -1.644888 0.79484433 2.3509886e-38
-0.22578536 -1.644886 0.79484534 2.3509886e-38
-0.2160688 -1.6448895 0.79484361 2.3509886e-38
-0.20635195 -1.6448911 0.79484272 2.3509886e-38
-0.19501534 -1.6448914 0.7948426 2.3509886e-38
-0.1836791 -1.6448942 0.79484105 2.3509886e-38
-0.17396249 -1.6448984 0.79483891 2.3509886e-38
-0.16424516 -1.6448969 0.7948398 2.3509886e-38
-0.15452777 -1.6448946 0.79484099 2.3509886e-38
-0.14481124 -1.6449003 0.79483795 2.3509886e-38
-0.13423672 -1.6447953 0.79580438 1.8715713e-38
0.5858829 -1.6493177 0.79742044 1.6410822e-38
0.59499174 -1.6468327 0.79592192 1.6410822e-38
0.60544854 -1.6448175 0.79644167 1.6410822e-38
0.61556202 -1.6435181 0.79737276 1.6410822e-38
0.62499392 -1.6427993 0.79774398 1.6410822e-38
0.63468456 -1.6427746 0.79775649 1.6410822e-38
0.64458942 -1.6432992 0.79748565 1.6410822e-38
0.65473866 -1.6444243 0.79690474 1.6410822e-38
0.66511446 -1.6460763 0.79605198 1.6503018e-38
0.67554104 -1.648585 0.79658163 1.5026799e-38
-0.56148767 -1.63065 0.79678214 6.3618586e-39
-0.55851579 -1.6364819 0.79556173 6.3618586e-39
-0.26544601 -1.6347389 0.7959522 2.3509886e-38
-0.25512162 -1.6343726 0.79484707 2.3509886e-38
-0.24470077 -1.6338787 0.79484493 2.3509886e-38
-0.23417987 -1.6343788 0.79484391 2.3509886e-38
-0.22451258 -1.6343776 0.79484445 2.3509886e-38
-0.21484607 -1.6343821 0.79484206 2.3509886e-38
-0.20517904 -1.6343831 0.79484171 2.3509886e-38
-0.19551183 -1.6343831 0.79484159 2.3509886e-38
-0.185845 -1.6343856 0.79484028 2.3509886e-38
-0.17530452 -1.6348878 0.79483813 2.3509886e-38
-0.16489689 -1.634388 0.79483908 2.3509886e-38
-0.15449722 -1.6338888 0.79483956 2.3509886e-38
-0.14395444 -1.6343923 0.79483682 2.3509886e-38
-0.13494007 -1.6346337 0.79507387 2.1573777e-38
-0.12774687 -1.6356971 0.79959947 1.3552758e-38
-0.56437165 -1.6249918 0.79430401 6.1774673e-39
-0.27110589 -1.6250143 0.79972076 2.3509886e-38
-0.26568329 -1.6240988 0.79567927 2.3509886e-38
-0.25530943 -1.6239594 0.79484636 2.3509886e-38
-0.24569254 -1.623964 0.79484391 2.3509886e-38
-0.23607512 -1.6239657 0.79484302 2.3509886e-38
-0.22485434 -1.623965 0.79484344 2.3509886e-38
-0.21363449 -1.6239704 0.79484063 2.3509886e-38
-0.20401676 -1.6239704 0.79484057 2.3509886e-38
-0.19439907 -1.6239706 0.7948404 2.3509886e-38
-0.18478173 -1.6239737 0.79483891 2.3509886e-38
-0.17516442 -1.6239773 0.794837 2.3509886e-38
-0.16554636 -1.6239748 0.79483837 2.3509886e-38
-0.15592845 -1.6239737 0.79483891 2.3509886e-38
-0.14631131 -1.6239794 0.79483587 2.3509886e-38
-0.13989918 -1.6239766 0.7948373 2.3509886e-38
-0.12730731 -1.6295033 0.79918975 1.3552758e-38
0.35977447 -1.6203449 0.79312682 2.1190912e-39
0.36017296 -1.6245031 0.79637134 2.2109267e-39
-0.57114512 -1.6117009 0.79527682 6.0849116e-39
-0.56853831 -1.6168159 0.79570472 6.0852717e-39
-0.2652449 -1.6158199 0.79640996 2.3509886e-38
-0.25474241 -1.6131765 0.7948454 2.3509886e-38
-0.24433173 -1.6136703 0.79484224 2.3509886e-38
-0.23476277 -1.6136695 0.79484272 2.3509886e-38
-0.22519398 -1.6136695 0.79484272 2.3509886e-38
-0.21562602 -1.6136751 0.7948398 2.3509886e-38
-0.20519967 -1.6141636 0.7948395 2.3509886e-38
-0.19489093 -1.6136757 0.79483944 2.3509886e-38
-0.18459038 -1.6131912 0.79483753 2.3509886e-38
-0.17416197 -1.6136822 0.79483604 2.3509886e-38
-0.16459267 -1.6136786 0.79483795 2.3509886e-38
-0.15572076 -1.6143625 0.79483765 2.3509886e-38
-0.14733711 -1.6171011 0.79483497 2.3509886e-38
0.35950929 -1.6175785 0.79096842 2.3960354e-39
-0.82291746 -1.6039287 0.79459685 3.411597e-39
-0.57598746 -1.6050457 0.79508114 5.9008804e-39
-0.24615632 -1.6034676 0.79484153 2.3509886e-38
-0.23504908 -1.6034665 0.79484206 2.3509886e-38
-0.22394228 -1.6034683 0.79484123 2.3509886e-38
-0.21442275 -1.6034735 0.79483843 2.3509886e-38
-0.20490235 -1.6034733 0.79483843 2.3509886e-38
-0.19538195 -1.6034733 0.79483843 2.3509886e-38
-0.18586202 -1.6034766 0.7948367 2.3509886e-38
-0.17634203 -1.6034799 0.79483509 2.3509886e-38
-0.16840802 -1.6034771 0.7948364 2.3509886e-38
0.36044607 -1.6064069 0.79507762 2.3945935e-39
-0.81548482 -1.5964974 0.79496366 3.5034339e-39
-0.80987686 -1.5908892 0.79079932 3.2272072e-39
-0.59061527 -1.5903292 0.79825407 5.6239334e-39
-0.58506429 -1.5958804 0.79439658 5.6242936e-39
-0.23260303 -1.5967246 0.79484218 2.3509886e-38
-0.22627775 -1.5967263 0.79484129 2.3509886e-38
-0.21520902 -1.5967327 0.79483789 2.3509886e-38
-0.20413928 -1.5967327 0.79483777 2.3509886e-38
-0.19465096 -1.5967331 0.79483765 2.3509886e-38
-0.1851631 -1.5967368 0.79483575 2.3509886e-38
0.3635157 -1.5964488 0.79498792 2.5786232e-39
-0.80469882 -1.5857128 0.79715455 3.5956296e-39
-0.60044461 -1.5804988 0.79638904 5.3473465e-39
-0.59499699 -1.5859469 0.79475766 5.4395422e-39
-0.15227528 -1.5811192 0.79249102 2.3509886e-38
0.36824968 -1.587109 0.79462069 2.0261739e-39
0.37198028 -1.5820094 0.79557592 2.7630088e-39
0.45667815 -1.58183 0.79567075 2.3953474e-39
0.46156934 -1.5887185 0.79375458 3.5006075e-39
-0.79471833 -1.5757983 0.79536688 3.5034339e-39
-0.78839082 -1.5712329 0.79428118 3.5037941e-39
-0.61187571 -1.5710634 0.79437453 4.9789227e-39
-0.60532773 -1.5756263 0.79545802 5.1629553e-39
0.37692624 -1.5766662 0.79534 2.2105609e-39
0.38276377 -1.5718353 0.79466575 2.2105609e-39
0.44659796 -1.5722344 0.79445028 3.4087552e-39
0.45265761 -1.5771977 0.7946074 3.3165666e-39
-0.78331369 -1.5686461 0.79479915 3.5037941e-39
-0.77529389 -1.5645601 0.79486912 3.5037941e-39
-0.76870269 -1.5612023 0.79442513 3.4119586e-39
-0.63159639 -1.5610148 0.79629594 4.3339149e-39
-0.62521952 -1.5642642 0.79452467 4.5183061e-39
-0.6170181 -1.5684432 0.79579669 4.7945329e-39
-0.22754408 -1.5679889 0.79249597 2.3509886e-38
-0.2034037 -1.5614935 0.79249597 2.3509886e-38
-0.19407688 -1.5614952 0.79249501 2.3509886e-38
-0.17295738 -1.5679972 0.7924915 2.3509886e-38
-0.16983807 -1.5679973 0.79249144 2.3509886e-38
-0.15961275 -1.5622703 0.79914922 9.4039542e-39
0.38723668 -1.5690498 0.79475749 1.3815317e-39
0.39555621 -1.5652139 0.79471618 1.473726e-39
0.40528542 -1.5626174 0.79506755 4.9778606e-39
0.4149884 -1.5618201 0.79585642 8.665306e-39
0.42456686 -1.5627892 0.79532808 4.1477482e-39
0.43420604 -1.5655549 0.79426432 1.5662915e-39
0.44140467 -1.5689713 0.79550928 3.2243597e-39
-0.76288879 -1.5582408 0.79427552 3.3201231e-39
-0.75506771 -1.5542568 0.7954483 3.3197629e-39
-0.74628156 -1.5505748 0.79494923 3.2279274e-39
-0.65356642 -1.5506171 0.79448509 3.59671e-39
-0.6449917 -1.5541892 0.79520983 3.7814614e-39
-0.63682222 -1.558352 0.7946558 4.0576881e-39
-0.17446031 -1.5556097 0.79924428 9.4039542e-39
-0.74192452 -1.5498375 0.79711694 3.2279274e-39
-0.73562175 -1.5488391 0.79590309 3.1357318e-39
-0.72518307 -1.5471855 0.79429895 3.0435362e-39
-0.71521145 -1.5456057 0.79416382 2.951342e-39
-0.70519149 -1.5440183 0.79504037 2.9513406e-39
-0.69493908 -1.5439847 0.79537845 2.9517007e-39
-0.684856 -1.5455825 0.79382408 3.0438963e-39
-0.67499775 -1.5471452 0.79507643 3.2282876e-39
-0.66513062 -1.5487089 0.79632688 3.4123187e-39
-0.65886205 -1.5497023 0.79542881 3.5045143e-39
-0.061206236 -1.5122753 0.79874492 1.1779175e-40
-0.056383021 -1.5047903 0.7977643 1.1779175e-40
0.08675456 -1.5041422 0.79985863 8.618462e-40
-0.051634341 -1.4981914 0.79631448 1.1779175e-40
-0.047453791 -1.4935869 0.79663301 1.1779175e-40
0.077487037 -1.4937735 0.79537731 1.1779175e-40
0.082034335 -1.4970753 0.79867661 4.9054134e-40
-0.0422436 -1.4876528 0.79715014 1.1779175e-40
-0.037123587 -1.4830585 0.79691905 1.1779175e-40
0.066192083 -1.4822034 0.79741049 3.0290327e-40
0.072796553 -1.487638 0.79716122 3.9546044e-40
-0.033057325 -1.4797388 0.7965399 1.1779175e-40
-0.025785977 -1.4749606 0.79723758 1.1779175e-40
-0.017018605 -1.471293 0.79570436 1.1779175e-40
-0.0061931442 -1.4714483 0.79104328 1.1779175e-40
0.032378495 -1.4702914 0.79171789 1.1779175e-40
0.046223029 -1.4725705 0.79496282 1.1779175e-40
0.054940127 -1.4747181 0.79737723 3.9474017e-40
0.062165324 -1.4793245 0.7967785 1.1779175e-40
-0.01349289 -1.4688361 0.79769975 1.1779175e-40
-0.0036168694 -1.4666678 0.79610968 1.1779175e-40
0.0057619028 -1.4647665 0.7966463 1.1779175e-40
0.014622676 -1.464115 0.7970255 1.1779175e-40
0.02495544 -1.4653698 0.79629493 1.1779175e-40
0.035304099 -1.467312 0.79687613 1.1779175e-40
0.042209893 -1.4689617 0.79819608 1.1779175e-40
0.58946383 -1.9403172 0.80636483 1.68718e-38
0.59493208 -1.9415381 0.80325937 1.8715713e-38
0.60542494 -1.9432386 0.80310082 1.8715713e-38
0.61520767 -1.9445703 0.80367452 1.8439126e-38
0.62430471 -1.9452549 0.80424041 1.8162539e-38
0.63545823 -1.9453616 0.80419463 1.8162539e-38
0.64517677 -1.9445621 0.80386961 1.8715713e-38
0.65424192 -1.9440589 0.80324942 1.8162539e-38
0.66439199 -1.942354 0.80348158 1.8715713e-38
0.67308623 -1.9407201 0.80418533 1.751717e-38
0.56838369 -1.9314584 0.80318606 1.9176691e-38
0.57542127 -1.9338999 0.80312902 1.9361082e-38
0.58389002 -1.9360871 0.80351806 1.9176691e-38
0.59557968 -1.9316949 0.80008155 2.3509886e-38
0.60480022 -1.9316916 0.80008292 2.3509886e-38
0.61401868 -1.9316818 0.80008721 2.3509886e-38
0.62508351 -1.9316787 0.80008858 2.3509886e-38
0.63614875 -1.9316773 0.80008918 2.3509886e-38
0.64536989 -1.9316764 0.8000896 2.3509886e-38
0.65459341 -1.9316825 0.80008698 2.3509886e-38
0.66566062 -1.9316865 0.80008513 2.3509886e-38
0.67678338 -1.9360962 0.80298126 1.9176691e-38
0.68419415 -1.935313 0.80397356 1.834693e-38
0.69100624 -1.9321194 0.80390006 1.6410822e-38
0.56442249 -1.9273195 0.80498648 1.9176691e-38
0.57495111 -1.9225253 0.80008525 2.3509886e-38
0.58597201 -1.9225206 0.80008727 2.3509886e-38
0.5951556 -1.9225154 0.80008954 2.3509886e-38
0.60434002 -1.9225129 0.80009061 2.3509886e-38
0.61536187 -1.9225116 0.80009109 2.3509886e-38
0.62454665 -1.9225106 0.80009162 2.3509886e-38
0.63373142 -1.9225093 0.80009216 2.3509886e-38
0.64475536 -1.9225148 0.80008984 2.3509886e-38
0.65577745 -1.9225141 0.80009007 2.3509886e-38
0.66495907 -1.9225038 0.8000946 2.3509886e-38
0.67414308 -1.9225006 0.80009604 2.3509886e-38
0.68149054 -1.9224989 0.80009675 2.3509886e-38
0.69361311 -1.9246454 0.80634516 1.6410822e-38
0.57461095 -1.9134221 0.80009121 2.3509886e-38
0.58375955 -1.9134202 0.80009204 2.3509886e-38
0.59473783 -1.9134178 0.80009311 2.3509886e-38
0.60571641 -1.9134165 0.80009365 2.3509886e-38
0.61486518 -1.9134154 0.80009425 2.3509886e-38
0.62401408 -1.9134144 0.8000946 2.3509886e-38
0.63499451 -1.9134188 0.8000927 2.3509886e-38
0.6459716 -1.9134132 0.80009514 2.3509886e-38
0.65511888 -1.9134077 0.80009758 2.3509886e-38
0.69764411 -1.9130892 0.80818868 1.6410822e-38
0.57792073 -1.9043967 0.80009437 2.3509886e-38
0.58521104 -1.904395 0.80009508 2.3509886e-38
0.5961464 -1.9043927 0.80009604 2.3509886e-38
0.60525942 -1.9043914 0.80009663 2.3509886e-38
0.61437249 -1.9043903 0.80009717 2.3509886e-38
0.62530929 -1.9043924 0.80009621 2.3509886e-38
0.6325984 -1.9043874 0.80009842 2.3509886e-38
0.57938921 -1.8954417 0.80009735 2.3509886e-38
0.58483565 -1.8954406 0.80009782 2.3509886e-38
0.59391302 -1.8954386 0.80009872 2.3509886e-38
0.60299051 -1.8954368 0.80009955 2.3509886e-38
0.58084649 -1.8865564 0.80010015 2.3509886e-38
-0.72116774 -1.7509367 0.80594099 5.5317378e-40
-0.71502596 -1.7532221 0.80437726 5.5317378e-40
-0.70485538 -1.754918 0.80497962 4.6133688e-40
-0.69526899 -1.754949 0.80534124 4.6097815e-40
-0.68695986 -1.7536348 0.80747557 4.6133688e-40
-0.73467177 -1.7430139 0.80504882 6.4536941e-40
-0.72633606 -1.7483026 0.80519009 5.5317378e-40
-0.74312466 -1.7344487 0.80543345 7.3756504e-40
-0.7396152 -1.7381448 0.80552197 6.4572954e-40
-0.54837149 -1.7327403 0.80999583 7.1912591e-39
0.77928758 -1.7336037 0.80210268 8.0152114e-39
-0.74817711 -1.7265646 0.80924898 7.3792517e-40
-0.54717487 -1.7251868 0.80433118 7.0990635e-39
0.77541596 -1.7266053 0.80922937 1.9545474e-38
0.76860696 -1.7156838 0.80709869 1.9545474e-38
0.77068019 -1.718703 0.80190164 1.9637669e-38
-0.54356843 -1.7024224 0.80988348 7.0994236e-39
-0.22480266 -1.7023065 0.80730283 2.1204995e-38
-0.21556734 -1.7035742 0.80562294 1.9729865e-38
-0.20572565 -1.7044908 0.80517143 1.9545474e-38
-0.19579309 -1.7047949 0.80502164 1.8162539e-38
-0.18570098 -1.7038645 0.80547988 1.7701561e-38
-0.17605521 -1.7030545 0.80693483 1.6318626e-38
-0.16871494 -1.7014605 0.80851024 1.5765453e-38
0.49985158 -1.7088282 0.80674291 1.6410822e-38
0.50330293 -1.7043885 0.80521935 1.6410822e-38
0.75744623 -1.7008238 0.80327863 1.9268887e-38
0.76233447 -1.7067192 0.80592358 1.9545474e-38
-0.54383469 -1.6958481 0.80500317 6.9150324e-39
-0.24307255 -1.6930063 0.80714744 2.3048907e-38
-0.2348869 -1.6955272 0.80455929 2.1758169e-38
-0.22568998 -1.6976368 0.80263776 2.1573777e-38
-0.21537073 -1.6990223 0.8004691 2.046743e-38
-0.20717952 -1.699801 0.80008209 1.9914256e-38
-0.19224781 -1.6999136 0.80002606 1.8162539e-38
-0.18552853 -1.6993071 0.80032748 1.8162539e-38
-0.17470247 -1.6982588 0.80232918 1.6318626e-38
-0.16442777 -1.6955607 0.80403888 1.604204e-38
-0.15577742 -1.6933464 0.8069793 1.4474714e-38
0.50836486 -1.6982129 0.80549115 1.6410822e-38
0.5134927 -1.6928585 0.80458629 1.6410822e-38
0.74743575 -1.6900218 0.80125427 1.8900104e-38
0.75295019 -1.6956825 0.80582315 1.9176691e-38
-0.5455454 -1.68504 0.8037408 6.9146722e-39
-0.25399446 -1.6840771 0.80698109 2.3233299e-38
-0.24633874 -1.6859176 0.80289483 2.3233299e-38
-0.15336904 -1.6865314 0.80238372 1.4843496e-38
-0.14549245 -1.6848829 0.80657929 1.4290323e-38
0.51828057 -1.6879292 0.80598027 1.6410822e-38
0.5238592 -1.6830503 0.80473274 1.6410822e-38
0.73697156 -1.6804395 0.80420089 1.8623517e-38
0.74342835 -1.686262 0.8068105 1.8900104e-38
-0.54700089 -1.6758436 0.80466866 6.8224766e-39
-0.26249972 -1.673352 0.80665189 2.3509886e-38
-0.25662005 -1.6755015 0.80274713 2.3509886e-38
-0.14177954 -1.676815 0.80344963 1.3829344e-38
-0.13545886 -1.6731884 0.8067342 1.3460562e-38
0.52924562 -1.6784148 0.80521458 1.6410822e-38
0.53474951 -1.6742698 0.80545676 1.6410822e-38
0.54053992 -1.6703091 0.80378532 1.6410822e-38
0.72595972 -1.6721382 0.80579376 1.834693e-38
0.73203427 -1.6766591 0.80609244 1.8439126e-38
-0.5486266 -1.6655697 0.80544555 6.730281e-39
-0.27220273 -1.6600647 0.80894774 2.3509886e-38
-0.26574051 -1.6658686 0.80480653 2.3509886e-38
-0.14006694 -1.6699955 0.80028129 1.4290323e-38
-0.13384667 -1.6648997 0.80286241 1.3552758e-38
-0.12955196 -1.6641884 0.80687422 1.3091779e-38
0.54592967 -1.6667573 0.80557454 1.6410822e-38
0.55463171 -1.6618894 0.80438095 1.6410822e-38
0.70733339 -1.6609203 0.80487037 1.7609365e-38
0.71518177 -1.6653324 0.80568546 1.7978148e-38
0.72035497 -1.6684636 0.80105639 1.7978148e-38
-0.55053926 -1.6534818 0.80500269 6.6384455e-39
-0.54953921 -1.6598021 0.80179113 6.730281e-39
-0.27304083 -1.6534567 0.806835 2.3509886e-38
-0.26768464 -1.6568257 0.80257642 2.3509886e-38
-0.13246569 -1.6559076 0.80012435 1.3644953e-38
-0.12616974 -1.6546084 0.80625123 1.2907388e-38
0.5597173 -1.6591673 0.80939984 1.6410822e-38
0.56534648 -1.6566827 0.80410421 1.6410822e-38
0.57484567 -1.6528172 0.80533922 1.6410822e-38
0.5806511 -1.6508657 0.8063311 1.6410822e-38
0.68506002 -1.6515632 0.80552244 1.7056192e-38
0.69476986 -1.6551281 0.80468464 1.7240583e-38
0.70245546 -1.6586196 0.80512464 1.751717e-38
-0.55418122 -1.6449894 0.80524528 6.5458897e-39
-0.27317604 -1.6449392 0.80417049 2.3509886e-38
-0.12499481 -1.6446096 0.80407923 1.3183975e-38
0.58685786 -1.6489941 0.8046903 1.6410822e-38
0.59532183 -1.6467276 0.80444556 1.6410822e-38
0.60493636 -1.6448741 0.80575508 1.6410822e-38
0.61387265 -1.6436459 0.80534774 1.6410822e-38
0.62471253 -1.6428262 0.80524981 1.6410822e-38
0.63511115 -1.6427854 0.80501199 1.6410822e-38
0.64557582 -1.6433535 0.80549729 1.6410822e-38
0.65535855 -1.6444341 0.80597979 1.6410822e-38
0.6651684 -1.646076 0.80514157 1.6503018e-38
0.67410868 -1.6481844 0.80406559 1.6687409e-38
-0.56066412 -1.6322664 0.80498672 6.3618586e-39
-0.55808073 -1.6373363 0.8050878 6.4540542e-39
-0.2753925 -1.6354046 0.80517894 2.3509886e-38
-0.12266304 -1.6352255 0.80527008 1.2999584e-38
-0.56451166 -1.624716 0.80483067 6.269663e-39
-0.27640319 -1.6251634 0.80576944 2.3509886e-38
-0.12224406 -1.6290978 0.80481666 1.2999584e-38
-0.57086867 -1.6122426 0.8045764 6.0852717e-39
-0.56833541 -1.6172132 0.80467582 6.1774659e-39
-0.2756485 -1.6159816 0.80621457 2.3509886e-38
0.35995501 -1.6109955 0.80880755 1.1975062e-39
-0.82443219 -1.6054444 0.80455321 3.5959897e-39
-0.81981194 -1.6008254 0.80697447 3.6878252e-39
-0.5804857 -1.6004584 0.80181062 5.8086848e-39
-0.57564735 -1.6054218 0.80563754 5.9008804e-39
-0.27467212 -1.6093235 0.80609947 2.3509886e-38
-0.26851207 -1.6072696 0.80001169 2.3509886e-38
0.36126342 -1.6040167 0.80470735 2.3942347e-39
-0.81420755 -1.5952215 0.80279237 3.6878252e-39
-0.80963886 -1.590654 0.80520773 3.6878252e-39
-0.59018594 -1.5907587 0.80159217 5.6239334e-39
-0.58578914 -1.5951552 0.80509543 5.7161291e-39
-0.27261013 -1.5969671 0.80899721 2.3509886e-38
0.36503577 -1.5928488 0.80582714 1.9339825e-39
0.46465114 -1.5945197 0.80494332 3.5928045e-39
-0.80510026 -1.5861162 0.80760783 3.6878252e-39
-0.79955792 -1.5805736 0.80345857 3.6878252e-39
-0.59568518 -1.585259 0.80540085 5.4395422e-39
-0.12521744 -1.5840406 0.8069309 9.4039542e-39
0.36872736 -1.5860186 0.8041082 1.5655643e-39
0.37178677 -1.5822442 0.80611354 2.1187282e-39
0.45791927 -1.5833482 0.80552942 1.9350951e-39
0.46017933 -1.5861125 0.80050373 2.9477995e-39
-0.79392326 -1.5751396 0.80459023 3.5959897e-39
-0.78796524 -1.5710173 0.80502683 3.5959897e-39
-0.6121341 -1.5709319 0.80595428 4.9789241e-39
-0.60527474 -1.5758213 0.8051092 5.1629553e-39
-0.13245487 -1.575955 0.80592251 9.4039542e-39
0.37678257 -1.5768074 0.8050229 1.9343384e-39
0.3832424 -1.571462 0.80478811 2.1183681e-39
0.44604024 -1.5718853 0.80385458 2.6722734e-39
0.45193836 -1.5767411 0.80638617 2.3956991e-39
-0.7829895 -1.5684819 0.80638564 3.5959897e-39
-0.77481264 -1.5643154 0.80459374 3.5041542e-39
-0.76816463 -1.5609283 0.80340123 3.5041542e-39
-0.631549 -1.5610392 0.80510312 4.3339149e-39
-0.62492663 -1.5644134 0.80504358 4.6101416e-39
-0.6168955 -1.5685056 0.80536491 4.8867285e-39
-0.25503755 -1.5615404 0.80835116 9.4039542e-39
-0.14229172 -1.5636973 0.80718923 9.4039542e-39
-0.13786252 -1.5665573 0.80741811 9.4039542e-39
0.38732347 -1.5690035 0.80610532 1.47337e-39
0.39461979 -1.5655861 0.80441356 1.8421456e-39
0.40475348 -1.5626752 0.80597997 4.7012765e-39
0.41453108 -1.5618711 0.80641282 8.665306e-39
0.42496324 -1.5629146 0.80585158 3.963717e-39
0.43508089 -1.5659165 0.80423617 1.3826206e-39
0.44177938 -1.5691731 0.8060146 2.2116568e-39
-0.76331741 -1.558459 0.805439 3.4119586e-39
-0.75431985 -1.5538759 0.80429053 3.3197643e-39
-0.74604994 -1.5505419 0.80551338 3.2279274e-39
-0.65322274 -1.5506471 0.80595648 3.59671e-39
-0.64471865 -1.5543286 0.80521494 3.8732969e-39
-0.63641405 -1.5585603 0.80417824 4.1498837e-39
-0.24349782 -1.5552962 0.80644739 9.4039542e-39
-0.23411123 -1.553092 0.80413121 9.4039542e-39
-0.17683564 -1.5501885 0.8021996 9.4039542e-39
-0.16324326 -1.5539532 0.80366373 9.4039542e-39
-0.15534036 -1.5539013 0.80720115 9.4039542e-39
-0.14657041 -1.5596555 0.80760717 9.4039542e-39
-0.74155354 -1.5497788 0.80592644 3.2279274e-39
-0.7357986 -1.5488673 0.80598497 3.1357318e-39
-0.72508186 -1.5471698 0.80384308 3.0438963e-39
-0.71507072 -1.5455837 0.80470765 2.9517007e-39
-0.70508069 -1.5440012 0.80557042 2.9517007e-39
-0.69535047 -1.5439198 0.80596399 2.9517007e-39
-0.68529797 -1.5455132 0.80442792 3.0438963e-39
-0.67534077 -1.5470911 0.80423594 3.2282876e-39
-0.66478121 -1.5487647 0.8057 3.4123187e-39
-0.65842187 -1.5497721 0.80593121 3.5045143e-39
-0.22670856 -1.5456917 0.80814797 9.4039542e-39
-0.21645083 -1.5472884 0.80378056 9.4039542e-39
-0.20515049 -1.543787 0.80568922 9.4039542e-39
-0.19434743 -1.5434004 0.80589992 9.4039542e-39
-0.1855011 -1.5459962 0.80448502 9.4039542e-39
-0.17452727 -1.5454481 0.80740458 9.4039542e-39
-0.16731599 -1.5495162 0.80607212 9.4039542e-39
0.10000551 -1.5386631 0.80848247 7.7541972e-40
-0.064571798 -1.5209515 0.80083948 1.1779175e-40
0.096418314 -1.5230749 0.80487061 8.6545314e-40
-0.062357426 -1.5149739 0.80624753 1.1779175e-40
0.093096159 -1.5150236 0.80413723 8.6329094e-40
-0.056162238 -1.503563 0.80536157 1.1779175e-40
0.088548824 -1.5064059 0.80480278 8.629294e-40
-0.051383466 -1.4961281 0.80437607 1.1779175e-40
-0.04822325 -1.492023 0.80497777 1.1779175e-40
0.077273995 -1.4903781 0.80247557 8.6112453e-40
0.081572793 -1.4955822 0.80537271 8.6256787e-40
-0.043869488 -1.4872789 0.80526245 1.1779175e-40
-0.037732758 -1.481644 0.80504072 1.1779175e-40
0.067321323 -1.4816387 0.80487299 8.6040566e-40
0.073281899 -1.4864299 0.8054508 8.607644e-40
-0.032883245 -1.4780617 0.80434853 1.1779175e-40
-0.02534312 -1.4735578 0.80521894 1.1779175e-40
0.054408312 -1.4730662 0.80503577 7.6604643e-40
0.062789224 -1.4783242 0.80505365 8.59684e-40
-0.014888844 -1.4686637 0.80518609 1.1779175e-40
-0.0045137047 -1.4651723 0.80492693 1.1779175e-40
0.0058171269 -1.4635047 0.80588758 1.1779175e-40
0.014645764 -1.4632297 0.80604607 1.1779175e-40
0.024944192 -1.4639641 0.80562305 1.1779175e-40
0.03526346 -1.465872 0.80452389 2.1034751e-40
0.044497352 -1.4686183 0.80592108 5.7913143e-40
0.58859324 -1.9400719 0.81247288 1.68718e-38
0.59542519 -1.9420551 0.81561965 1.68718e-38
0.60462278 -1.9442306 0.81419474 1.6410822e-38
0.61502254 -1.9459226 0.81511825 1.6410822e-38
0.62493318 -1.9467331 0.81563175 1.6410822e-38
0.63423604 -1.946906 0.81555849 1.6410822e-38
0.64576846 -1.9462389 0.81498396 1.6410822e-38
0.65551025 -1.9448693 0.81492239 1.6410822e-38
0.66521376 -1.9428384 0.8152855 1.6410822e-38
0.67235976 -1.9409552 0.81342649 1.6410822e-38
0.56786585 -1.9313576 0.81420559 1.7793757e-38
0.57482481 -1.934728 0.81532282 1.7332778e-38
0.58417845 -1.9385238 0.81512928 1.7148387e-38
0.67769313 -1.9391841 0.81551194 1.6410822e-38
0.68522424 -1.9364624 0.81515229 1.6410822e-38
0.69022965 -1.9343479 0.81292552 1.6410822e-38
0.56351376 -1.929011 0.81521064 1.7793757e-38
0.69322968 -1.9257467 0.8154192 1.6410822e-38
0.69690531 -1.9152081 0.81440419 1.6410822e-38
0.69969851 -1.9072014 0.81865025 1.6410822e-38
0.70070338 -1.9043206 0.81463909 1.6410822e-38
0.70354199 -1.8961841 0.81948304 1.6410822e-38
-0.72165054 -1.7506908 0.81637335 5.5317378e-40
-0.71530253 -1.7530861 0.81486636 5.5317378e-40
-0.70481968 -1.7549241 0.81437266 4.6133688e-40
-0.6952737 -1.7549506 0.81489557 4.6097815e-40
-0.6854589 -1.7532777 0.81515026 4.6097815e-40
-0.67785263 -1.7504749 0.81460524 4.6097815e-40
-0.73325568 -1.7442414 0.81462449 6.4536941e-40
-0.72711009 -1.7479078 0.81519723 6.4536941e-40
-0.67314941 -1.7480778 0.81761003 4.6097815e-40
-0.5502975 -1.7448972 0.8191129 7.2834548e-39
-0.54981476 -1.7418503 0.81682789 7.1916179e-39
-0.7431041 -1.7344688 0.81537634 7.3756504e-40
-0.73835897 -1.7394012 0.81426239 6.4572954e-40
-0.54909235 -1.7372901 0.81340802 7.0994236e-39
-0.7511102 -1.7208116 0.81758821 8.2976067e-40
-0.74847573 -1.7259803 0.81510639 7.3792517e-40
0.77203441 -1.7206818 0.81580031 1.9268887e-38
-0.75298059 -1.7156627 0.81544554 8.301208e-40
-0.54521477 -1.712815 0.81774414 7.1916193e-39
-0.22403806 -1.7118514 0.81820869 2.0559625e-38
-0.21547116 -1.7123779 0.81657135 1.8623517e-38
-0.20602258 -1.7130316 0.81579393 1.8807908e-38
-0.19608326 -1.7133847 0.81562304 1.751717e-38
-0.18597619 -1.7124367 0.81608164 1.6779605e-38
-0.17586799 -1.7121767 0.81805182 1.5488866e-38
0.49882364 -1.7100389 0.81724048 1.6410822e-38
0.7665453 -1.7126813 0.81226695 1.9545474e-38
-0.5442729 -1.7068694 0.81324697 7.0994236e-39
-0.24344461 -1.7029039 0.81763005 2.1481582e-38
-0.23499273 -1.7042769 0.81451011 2.0744017e-38
-0.2259395 -1.7074316 0.81376356 2.0836212e-38
-0.2165737 -1.7083781 0.81158817 1.89923e-38
-0.20588832 -1.7088623 0.81042773 1.9084495e-38
-0.19595231 -1.709195 0.8102653 1.7793757e-38
-0.18585205 -1.7082558 0.81072378 1.7240583e-38
-0.17573671 -1.7078857 0.81275171 1.5949844e-38
-0.1651316 -1.7051544 0.81458575 1.5212279e-38
-0.15614246 -1.7030753 0.81693447 1.4382518e-38
0.49933845 -1.7094387 0.81199455 1.6410822e-38
0.50326759 -1.7044305 0.81566072 1.6410822e-38
0.75909698 -1.702651 0.81529832 1.9361082e-38
0.76445246 -1.7096002 0.81745261 1.9545474e-38
-0.5440827 -1.6942806 0.81387424 7.1912591e-39
-0.25340882 -1.6939327 0.81604856 2.2495734e-38
-0.24525578 -1.6972885 0.81301451 2.2680125e-38
-0.15358441 -1.6971996 0.81244481 1.4290323e-38
-0.14525023 -1.69408 0.81581056 1.3644953e-38
-0.13764006 -1.691263 0.8190167 1.3460562e-38
0.50834072 -1.6982521 0.81486863 1.6410822e-38
0.51340884 -1.6929258 0.81453753 1.6410822e-38
0.74885035 -1.691298 0.81350195 1.8900104e-38
0.75378227 -1.6965585 0.81459439 1.9176691e-38
-0.54554605 -1.6850348 0.81475198 7.0994236e-39
-0.26437417 -1.6842735 0.81695688 2.3509886e-38
-0.25800994 -1.6872063 0.81295079 2.2956712e-38
-0.1408959 -1.6869593 0.81197274 1.3460562e-38
-0.13440113 -1.6841576 0.81622934 1.2538606e-38
0.51780504 -1.6883796 0.81676674 1.6410822e-38
0.52306545 -1.6836574 0.81497133 1.6410822e-38
0.73888874 -1.6820483 0.81439483 1.8715713e-38
0.74451214 -1.6872369 0.81732816 1.8900104e-38
-0.54723489 -1.6743647 0.81345415 7.0068679e-39
-0.27171192 -1.67469 0.81693709 2.3509886e-38
-0.26559758 -1.6766888 0.81217867 2.3509886e-38
-0.13293712 -1.6776409 0.81255704 1.2907388e-38
-0.12659223 -1.6730694 0.81555414 1.244641e-38
0.52826369 -1.6791896 0.8139801 1.6410822e-38
0.53490329 -1.6741868 0.81513208 1.6410822e-38
0.72660065 -1.6725861 0.81603551 1.8254735e-38
0.73337811 -1.6776423 0.81383264 1.8531322e-38
-0.54885668 -1.6641172 0.81418592 6.9150324e-39
-0.28110456 -1.6602207 0.81975263 2.3509886e-38
-0.27479643 -1.665406 0.8146354 2.3509886e-38
-0.12451949 -1.6657162 0.81338853 1.2262019e-38
-0.11925279 -1.662918 0.81841213 1.1801041e-38
0.54438221 -1.6677269 0.81556666 1.6410822e-38
0.55330741 -1.6625555 0.81496423 1.6410822e-38
0.70810854 -1.6612988 0.81468451 1.7701561e-38
0.71478087 -1.6650598 0.81444103 1.7978148e-38
0.72107881 -1.6688365 0.8154676 1.7978148e-38
-0.55072844 -1.6533668 0.81413192 6.8224766e-39
-0.54985821 -1.657788 0.81734627 7.0994236e-39
-0.28160071 -1.6532023 0.81674784 2.3509886e-38
-0.27686635 -1.6545668 0.8117193 2.3509886e-38
-0.12237937 -1.6576837 0.81196392 1.2354214e-38
-0.11744748 -1.6542721 0.8162123 1.1893236e-38
0.55882835 -1.6596165 0.81643146 1.6410822e-38
0.56489772 -1.6568289 0.8142029 1.6410822e-38
0.5743829 -1.6530058 0.81539792 1.6410822e-38
0.58258653 -1.650251 0.81388921 1.6410822e-38
0.68611765 -1.6518732 0.81608701 1.7056192e-38
0.69487077 -1.6551678 0.81451839 1.7332778e-38
0.7024073 -1.6585679 0.81574917 1.751717e-38
-0.55412233 -1.6451052 0.81442207 6.7306411e-39
-0.28376287 -1.6440711 0.81700486 2.3509886e-38
-0.27943197 -1.6443806 0.81143838 2.3509886e-38
-0.11705009 -1.6438473 0.81351358 1.2077628e-38
0.58696359 -1.6489234 0.81455785 1.6410822e-38
0.59486455 -1.6468084 0.81598377 1.6410822e-38
0.60512072 -1.644835 0.814816 1.6410822e-38
0.61616653 -1.6434424 0.8137148 1.6410822e-38
0.6255725 -1.6427685 0.81405574 1.6410822e-38
0.63523477 -1.6427809 0.81404948 1.6410822e-38
0.64458036 -1.6432064 0.81428522 1.6410822e-38
0.65485299 -1.6443172 0.81507736 1.6410822e-38
0.66540784 -1.6461123 0.81552315 1.6503018e-38
0.67559987 -1.6485674 0.81473684 1.6687409e-38
-0.56091774 -1.6317692 0.81603527 6.7306411e-39
-0.55829674 -1.6369131 0.81630218 6.7306411e-39
-0.28351277 -1.6349952 0.81511754 2.3509886e-38
-0.1141879 -1.634342 0.81562865 1.1985432e-38
-0.56410825 -1.6255075 0.81385362 6.4540542e-39
-0.28355294 -1.6264374 0.81445295 2.3509886e-38
-0.11534692 -1.6265745 0.81330514 1.2538606e-38
-0.57108694 -1.6118132 0.81551915 6.269663e-39
-0.56851625 -1.6168575 0.81578255 6.3618586e-39
-0.28287098 -1.6160127 0.81514466 2.3509886e-38
-0.11598705 -1.6134614 0.81467426 1.244641e-38
0.35974693 -1.6130749 0.81487256 1.2889858e-39
-0.82363051 -1.6046443 0.81566566 3.7800208e-39
-0.58085185 -1.6000913 0.818021 6.1774673e-39
-0.576002 -1.6050466 0.81439036 5.9930761e-39
-0.28187951 -1.6094024 0.8149842 2.3509886e-38
0.36116388 -1.6035185 0.81624651 1.1049533e-39
-0.81458819 -1.5956033 0.81326282 3.6881853e-39
-0.80940181 -1.5904188 0.81950045 3.9647722e-39
-0.59050596 -1.5904379 0.81772494 5.9930761e-39
-0.58524376 -1.5957 0.8145014 5.9005203e-39
-0.28144115 -1.5983269 0.8189339 2.3509886e-38
-0.27712435 -1.5981374 0.81371498 2.3509886e-38
-0.1131384 -1.5952479 0.81522286 9.4039542e-39
0.36437157 -1.5943803 0.81567287 1.1049533e-39
0.46278039 -1.5910003 0.81389427 1.2908173e-39
-0.80386281 -1.5848804 0.8153339 3.7800208e-39
-0.79936367 -1.5803822 0.81769186 3.8725766e-39
-0.60050046 -1.5804435 0.81413549 5.4395422e-39
-0.59517175 -1.5857725 0.81486452 5.6242936e-39
-0.12012745 -1.5821007 0.81326455 9.4039542e-39
-0.11729562 -1.5868182 0.81431776 9.4039542e-39
0.36800304 -1.5873137 0.8140564 1.1053134e-39
0.37172905 -1.5823137 0.81491596 1.105312e-39
0.45788258 -1.5833033 0.81439543 1.4752015e-39
-0.79308486 -1.5743928 0.81380743 3.6881853e-39
-0.7875433 -1.5708032 0.81570458 3.7800208e-39
-0.61172503 -1.5711405 0.81482333 5.1633154e-39
-0.6055209 -1.5755204 0.81567395 5.3477067e-39
-0.27270377 -1.5707941 0.81746536 9.4039542e-39
-0.26851088 -1.5709736 0.81210136 9.4039542e-39
-0.12575303 -1.5741771 0.8139205 9.4039542e-39
-0.11947154 -1.5765206 0.81971633 9.4039542e-39
0.3766275 -1.5768111 0.81534517 9.2164101e-40
0.38233602 -1.5721126 0.81501168 1.0134765e-39
0.44738579 -1.5728571 0.81532127 1.2904417e-39
0.4534618 -1.5779634 0.81543976 1.3830017e-39
-0.78329062 -1.5686364 0.81685048 3.780381e-39
-0.77514398 -1.5644853 0.81510782 3.6881853e-39
-0.76763165 -1.5606571 0.8123312 3.5041542e-39
-0.63200402 -1.5608075 0.81487614 4.4264692e-39
-0.62463665 -1.5645615 0.8155055 4.7026974e-39
-0.61673874 -1.5685858 0.81512338 4.9789241e-39
-0.13416305 -1.5630386 0.81456482 9.4039542e-39
-0.12816244 -1.5671048 0.817662 9.4039542e-39
0.38790545 -1.5686938 0.81506592 9.2163961e-40
0.39502087 -1.5653689 0.81507653 9.2163961e-40
0.40405226 -1.5628278 0.81603765 3.8715214e-39
0.41490719 -1.5618588 0.81431699 8.5734691e-39
0.42591733 -1.5630578 0.81530446 2.950291e-39
0.43545875 -1.5660704 0.81470329 1.1060407e-39
0.44239545 -1.5695049 0.81463701 1.2897187e-39
-0.7636894 -1.5586488 0.81602675 3.5963498e-39
-0.75491762 -1.5541801 0.81448418 3.4123187e-39
-0.74579024 -1.55045 0.81604594 3.41196e-39
-0.65318865 -1.5506678 0.81543124 3.6892657e-39
-0.64535904 -1.5540026 0.81541306 3.9654925e-39
-0.63693827 -1.5582933 0.8149057 4.2420794e-39
-0.2618112 -1.5593904 0.81650615 9.4039542e-39
-0.25517616 -1.5553863 0.81514883 9.4039542e-39
-0.24855934 -1.551373 0.8138079 9.4039542e-39
-0.15175535 -1.5510069 0.81226122 9.4039542e-39
-0.14569506 -1.5535446 0.81496853 9.4039542e-39
-0.13816795 -1.5570521 0.81775153 9.4039542e-39
-0.7411865 -1.5497208 0.81469619 3.3197629e-39
-0.73420709 -1.5486153 0.81454247 3.2279274e-39
-0.724913 -1.5471433 0.81433791 3.136092e-39
-0.71493179 -1.5455623 0.81518865 3.1357332e-39
-0.70497155 -1.5439844 0.81603783 3.0438963e-39
-0.69475228 -1.5440152 0.81570548 3.0438963e-39
-0.68484259 -1.5455858 0.81552398 3.2282876e-39
-0.67479527 -1.5471779 0.81400281 3.3204832e-39
-0.6651755 -1.5487024 0.81480694 3.5045143e-39
-0.6579861 -1.5498415 0.81637222 3.6892657e-39
-0.25246787 -1.5497326 0.81991184 9.4039542e-39
-0.24394457 -1.5458297 0.81736356 9.4039542e-39
-0.23534097 -1.5445384 0.81400037 9.4039542e-39
-0.2243337 -1.5413678 0.81223452 9.4039542e-39
-0.21669587 -1.5406942 0.81086051 9.4039542e-39
-0.18150273 -1.5406908 0.81086248 9.4039542e-39
-0.17529956 -1.540777 0.81255436 9.4039542e-39
-0.16415691 -1.5439408 0.8140741 9.4039542e-39
-0.15472592 -1.5458081 0.8171438 9.4039542e-39
-0.22506997 -1.5380448 0.81750369 9.4039542e-39
-0.21368037 -1.5372577 0.81532747 9.4039542e-39
-0.20522904 -1.5364771 0.8148818 9.4039542e-39
-0.19519033 -1.536278 0.81474197 9.4039542e-39
-0.18549244 -1.5373703 0.81497675 9.4039542e-39
-0.17472832 -1.5376905 0.81711704 9.4039542e-39
-0.16866027 -1.5389262 0.81876218 9.4039542e-39
-0.068062618 -1.537904 0.81410986 1.1779175e-40
0.099756256 -1.5360985 0.81508803 7.7541972e-40
0.096174888 -1.5218844 0.81417805 8.6581187e-40
-0.062430482 -1.5151907 0.81612778 1.1779175e-40
0.092820592 -1.5136801 0.81523436 8.6545314e-40
-0.055908605 -1.5031562 0.81589383 1.1779175e-40
0.088002257 -1.5049056 0.81492549 8.6436994e-40
-0.051153198 -1.4958849 0.81479651 1.1779175e-40
-0.048040718 -1.4918464 0.81363416 1.1779175e-40
0.081703119 -1.4954991 0.81501126 8.6328954e-40
-0.043369219 -1.4866987 0.81481194 1.1779175e-40
-0.038754497 -1.4822875 0.81558466 1.1779175e-40
0.067925729 -1.4819573 0.81577009 8.6040566e-40
0.074002236 -1.4869884 0.81521761 8.618462e-40
-0.034229606 -1.4788195 0.81413841 1.1779175e-40
-0.025067646 -1.4733453 0.81507242 1.1779175e-40
0.049968112 -1.470688 0.81703627 8.5860219e-40
0.055344485 -1.4734852 0.81443822 8.5932246e-40
0.063428506 -1.478675 0.81421989 8.6040566e-40
-0.014776055 -1.4683107 0.8150003 1.1779175e-40
-0.0048337025 -1.4650151 0.81487525 1.1779175e-40
0.0052804467 -1.4635286 0.81636477 1.1779175e-40
0.014667814 -1.4632199 0.81620288 1.1779175e-40
0.02493549 -1.4640096 0.8157537 1.1779175e-40
0.03522227 -1.4657075 0.81478804 5.7913143e-40
0.044064216 -1.4682246 0.81504887 8.5715886e-40
0.59418488 -1.9417058 0.82487202 1.68718e-38
0.60457867 -1.9442327 0.82466298 1.6410822e-38
0.61456406 -1.9458764 0.82546437 1.6410822e-38
0.62538385 -1.9467678 0.82558793 1.6410822e-38
0.63534892 -1.946864 0.82611603 1.6410822e-38
0.64424896 -1.9464031 0.82524341 1.6410822e-38
0.6546157 -1.945014 0.82433504 1.6410822e-38
0.66496676 -1.9429101 0.8252185 1.6410822e-38
0.67323405 -1.9407066 0.82495081 1.6410822e-38
0.56635994 -1.93056 0.82446957 1.7793757e-38
0.57462204 -1.9346052 0.82474375 1.7424974e-38
0.58478516 -1.9387907 0.82496208 1.7056192e-38
0.67792141 -1.9390996 0.82383907 1.6410822e-38
0.68481982 -1.9366968 0.82534832 1.6410822e-38
0.69127685 -1.9313544 0.82413524 1.6410822e-38
0.56201792 -1.9282079 0.82546455 1.7885952e-38
0.69386864 -1.9239185 0.82649279 1.6410822e-38
0.69684929 -1.9153701 0.82302582 1.6410822e-38
0.6990779 -1.9089813 0.82575512 1.6410822e-38
0.70115948 -1.9030145 0.82438368 1.6410822e-38
0.70422047 -1.89424 0.82502568 1.6410822e-38
0.70774776 -1.8841301 0.82665789 1.6410822e-38
0.71049339 -1.8762608 0.82812196 1.6410822e-38
-0.72158271 -1.7507253 0.82568717 5.5353251e-40
-0.71434474 -1.7532891 0.82593906 5.5317378e-40
-0.70446217 -1.7549815 0.82556397 5.5317378e-40
-0.69476503 -1.7548709 0.82514924 5.5317378e-40
-0.68545884 -1.7532613 0.8258338 4.6133688e-40
-0.67917562 -1.7511495 0.82735163 4.6133828e-40
-0.7343033 -1.743264 0.82484347 6.4572814e-40
-0.72643137 -1.7482533 0.82451606 5.5353391e-40
-0.67361015 -1.7483128 0.82495278 4.6097815e-40
-0.66597408 -1.7436749 0.82465142 4.6097815e-40
-0.55078101 -1.7479494 0.82140183 7.2838149e-39
-0.74406815 -1.73342 0.8255927 7.3792517e-40
-0.73917693 -1.7385851 0.82580441 7.3756504e-40
-0.66156006 -1.7393991 0.8291285 4.6133688e-40
0.77756536 -1.7303578 0.8222838 1.8623517e-38
-0.75033486 -1.7223347 0.82424849 8.301194e-40
-0.74830854 -1.7263107 0.82494116 7.3792517e-40
-0.54687089 -1.7232691 0.82565099 7.6522373e-39
-0.22279741 -1.7203048 0.82705623 2.3509886e-38
-0.21619149 -1.7206942 0.82687134 2.3233299e-38
-0.20629506 -1.7214093 0.82653183 2.2680125e-38
-0.19633734 -1.7217158 0.82638627 2.1758169e-38
-0.1862461 -1.7209845 0.82673359 2.2034756e-38
-0.17785224 -1.7204514 0.82698661 2.3509886e-38
0.23368548 -1.7234339 0.82925498 7.3683777e-40
0.77408642 -1.7242197 0.82888371 1.8439126e-38
-0.75301266 -1.7155707 0.8245787 8.301208e-40
-0.54592317 -1.7172868 0.82112634 7.467846e-39
-0.24343111 -1.7123526 0.82716441 2.3509886e-38
-0.23485252 -1.7124519 0.82449383 2.1389386e-38
-0.22618797 -1.7155279 0.82381207 2.0836212e-38
-0.21601321 -1.7170509 0.82308263 1.8254735e-38
-0.20615964 -1.7180233 0.82261771 1.8254735e-38
-0.19621782 -1.7184042 0.8224358 1.6963996e-38
-0.18610299 -1.7174407 0.82289624 1.6318626e-38
-0.17551994 -1.7167841 0.82399994 1.7056192e-38
-0.16646843 -1.7136638 0.82409078 1.6687409e-38
-0.15635189 -1.7120966 0.82636917 2.0283039e-38
0.23279198 -1.714779 0.82967949 7.3683777e-40
0.49848115 -1.7104383 0.8207311 1.6410822e-38
0.76881367 -1.715899 0.82363051 1.9084495e-38
-0.75486839 -1.7051136 0.82622755 8.301208e-40
-0.25348133 -1.7031019 0.82531011 2.2864516e-38
-0.24510887 -1.7068136 0.82352602 2.1758169e-38
-0.23677753 -1.7090585 0.82139528 2.0283039e-38
-0.16215596 -1.7092879 0.82128495 1.4659105e-38
-0.15414338 -1.7069968 0.82300067 1.4198127e-38
-0.14541128 -1.7035253 0.8251065 1.7056192e-38
0.23196915 -1.7066952 0.82986271 7.3683777e-40
0.503223 -1.7044516 0.82483488 1.6410822e-38
0.75686878 -1.7000312 0.82208002 1.9268887e-38
0.76178104 -1.7060084 0.82469589 1.9453278e-38
-0.54382831 -1.6958872 0.82590955 8.7589436e-39
-0.26492763 -1.6936153 0.82518435 2.3141103e-38
-0.257718 -1.6970221 0.82292604 2.2403538e-38
-0.14240192 -1.6976229 0.82202548 1.3091779e-38
-0.13480401 -1.6950645 0.82493997 1.68718e-38
0.23121241 -1.6991448 0.82981902 6.4500227e-40
0.50838554 -1.6981976 0.82479513 1.6410822e-38
0.51285613 -1.6934568 0.82525772 1.6410822e-38
0.74909359 -1.6915176 0.82983881 1.9176691e-38
0.75251865 -1.6951909 0.82442123 1.9176691e-38
-0.54554653 -1.6850313 0.82387853 8.3898023e-39
-0.27289429 -1.6834241 0.82492399 2.3509886e-38
-0.26733369 -1.6868658 0.82237846 2.3509886e-38
-0.13176434 -1.687626 0.82200795 1.1985432e-38
-0.12506969 -1.6848024 0.82581222 1.8531322e-38
0.51834536 -1.6878897 0.82430935 1.6410822e-38
0.52386558 -1.6829084 0.8256917 1.6410822e-38
0.73726201 -1.6806996 0.82053328 1.8623517e-38
0.7430768 -1.6858877 0.82528311 1.8900104e-38
-0.54707915 -1.6753478 0.82496995 8.3901625e-39
-0.28261411 -1.6744879 0.82720339 2.3509886e-38
-0.27709076 -1.6756397 0.82361937 2.3509886e-38
-0.12422717 -1.6777666 0.82197249 1.1985432e-38
-0.11897829 -1.6741663 0.82464463 1.4474714e-38
0.52883989 -1.6787392 0.82512522 1.6410822e-38
0.53474492 -1.6742795 0.82476759 1.6410822e-38
0.54053372 -1.6702626 0.8274579 1.6410822e-38
0.72651041 -1.672507 0.82364142 1.8254735e-38
0.73371804 -1.6779046 0.82553542 1.8531322e-38
-0.54859483 -1.6657714 0.82604569 8.4823567e-39
-0.28362849 -1.664446 0.82489485 2.3509886e-38
-0.27891737 -1.6682234 0.82122135 2.3509886e-38
-0.11543258 -1.6656338 0.8243084 1.4935692e-38
-0.10902061 -1.6600031 0.82708055 2.2864516e-38
0.54619431 -1.6666265 0.82421929 1.6410822e-38
0.55445582 -1.6619017 0.82569319 1.6410822e-38
0.70778555 -1.6611509 0.82651383 1.7701561e-38
0.71488476 -1.6651171 0.82456076 1.7978148e-38
0.72232944 -1.669661 0.82775164 1.8254735e-38
-0.55059838 -1.6531187 0.82508057 8.0217387e-39
-0.54960322 -1.6594001 0.82196701 7.8369873e-39
-0.29116142 -1.6559565 0.82727891 2.3509886e-38
-0.28639284 -1.6543232 0.82340509 2.3509886e-38
-0.11326534 -1.6565834 0.82276291 1.1708845e-38
-0.10704426 -1.653994 0.82644701 2.0375234e-38
0.56493855 -1.6568199 0.82504696 1.6410822e-38
0.57563436 -1.6525072 0.82403451 1.6410822e-38
0.58111119 -1.6506745 0.82449484 1.6410822e-38
0.6844843 -1.651282 0.82419354 1.6963996e-38
0.69578981 -1.6555657 0.82521737 1.7332778e-38
0.70318097 -1.6589168 0.82400864 1.7609365e-38
-0.55423003 -1.6448948 0.82557702 8.2057698e-39
-0.29095945 -1.6435974 0.82622528 2.3509886e-38
-0.28827235 -1.6455168 0.82347637 2.3509886e-38
-0.11156382 -1.6463068 0.82128322 1.1247867e-38
-0.10700649 -1.6448148 0.82621622 1.7609365e-38
0.58650035 -1.6490219 0.82576507 1.6410822e-38
0.59484261 -1.6468295 0.82506049 1.6410822e-38
0.6053012 -1.6447831 0.82383651 1.6410822e-38
0.61449027 -1.6435659 0.82444423 1.6410822e-38
0.62442946 -1.6428299 0.82516992 1.6410822e-38
0.63504869 -1.6427481 0.82485259 1.6410822e-38
0.64540851 -1.6432478 0.82460302 1.6410822e-38
0.65492058 -1.6442934 0.82408082 1.6410822e-38
0.66494632 -1.6460257 0.82501203 1.6503018e-38
0.6745981 -1.6482791 0.82517195 1.6687409e-38
0.6800338 -1.6498468 0.82849884 1.6963996e-38
-0.56055456 -1.6324826 0.82641286 8.2057712e-39
-0.55823052 -1.6370436 0.82412589 7.8369873e-39
-0.29275507 -1.6345689 0.82626253 2.3509886e-38
-0.28838956 -1.6348344 0.8216573 2.3509886e-38
-0.1110049 -1.637321 0.82040471 1.1247867e-38
-0.10529661 -1.6347952 0.82644701 1.89923e-38
-0.56450373 -1.624732 0.82496625 7.8369887e-39
-0.29224744 -1.6242522 0.82580352 2.3509886e-38
-0.28853074 -1.6251228 0.82120585 2.3509886e-38
-0.1068427 -1.6245974 0.82444334 1.5304475e-38
0.35985208 -1.6211665 0.82854229 1.4737344e-39
-0.57070231 -1.6125674 0.82579774 7.6525974e-39
-0.56842983 -1.6170269 0.82353133 7.3760105e-39
-0.29257354 -1.6135566 0.82707167 2.3509886e-38
-0.28838578 -1.6148407 0.8228665 2.3509886e-38
-0.10476345 -1.6180396 0.82657093 1.9268887e-38
0.35952124 -1.6165891 0.82375503 1.0131178e-39
-0.82373273 -1.6047477 0.82447398 4.3331946e-39
-0.81953239 -1.6005478 0.82132602 4.0569678e-39
-0.58021861 -1.6007242 0.82300264 6.6384455e-39
-0.57564795 -1.6053803 0.82485884 7.2838149e-39
-0.2909618 -1.6032823 0.8269915 2.3509886e-38
-0.28738323 -1.6082728 0.82267082 2.3509886e-38
-0.11235109 -1.6095977 0.82021928 1.1708845e-38
-0.10631797 -1.6050396 0.82609725 1.7609365e-38
0.36059952 -1.6054636 0.82587665 1.0131178e-39
-0.81395245 -1.5949693 0.82507819 4.2413591e-39
-0.58596331 -1.5949799 0.82507491 7.0994236e-39
-0.28766268 -1.5963395 0.82525694 1.9914256e-38
-0.10810061 -1.5958966 0.8254841 1.6410822e-38
0.36372766 -1.5959862 0.82543927 1.1049533e-39
0.46642685 -1.599545 0.82537448 5.0679374e-39
-0.80426776 -1.5852865 0.82568073 4.3335547e-39
-0.59554976 -1.5853939 0.82474726 6.6384455e-39
-0.28399387 -1.5853395 0.82682496 2.3141103e-38
-0.11306232 -1.5859289 0.82534999 1.6779605e-38
0.36843261 -1.5867859 0.82490325 1.0131178e-39
0.37228176 -1.5816416 0.82405996 1.0134765e-39
0.45712546 -1.5823783 0.82543147 1.3819283e-39
0.46092471 -1.5875083 0.82277107 1.3822913e-39
-0.7935766 -1.5748481 0.82479411 4.3335547e-39
-0.78766608 -1.5708666 0.82442701 4.4253902e-39
-0.61203367 -1.5709834 0.82680929 6.3618586e-39
-0.60496414 -1.5760719 0.82520771 6.269663e-39
-0.28069788 -1.5764596 0.82500428 1.604204e-38
-0.27720135 -1.57372 0.82468492 1.4105931e-38
-0.12194754 -1.5705762 0.82457888 1.5581061e-38
