# .PCD v0.7 - Point Cloud Data file format
VERSION 0.7
FIELDS x y z rgb
SIZE 4 4 4 4
TYPE F F F F
COUNT 1 1 1 1
WIDTH 953
HEIGHT 1
VIEWPOINT 0 0 0 1 0 0 0
POINTS 953
DATA ascii
2.3453696 -3.8605707 -6.3180923e-06 1.3829344e-38
2.3528051 -3.8605721 -6.9141388e-06 1.3829344e-38
2.363956 -3.86057 -5.9604645e-06 1.3829344e-38
2.3751082 -3.8605702 -6.3180923e-06 1.3829344e-38
2.3862605 -3.86057 -6.1988831e-06 1.3829344e-38
2.3974128 -3.8605702 -6.3180923e-06 1.3829344e-38
-2.3438859 -3.8417377 -7.7486038e-06 1.3829344e-38
-2.3364811 -3.8417377 -7.7486038e-06 1.3829344e-38
-2.3253736 -3.8417377 -7.7486038e-06 1.3829344e-38
-2.3142662 -3.8417377 -7.7486038e-06 1.3829344e-38
-2.3068612 -3.8417377 -7.7486038e-06 1.3829344e-38
-2.2957537 -3.8417377 -7.7486038e-06 1.3829344e-38
-2.2846463 -3.8417377 -7.7486038e-06 1.3829344e-38
-2.2772412 -3.8417377 -7.7486038e-06 1.3829344e-38
-2.2661338 -3.8417377 -7.7486038e-06 1.3829344e-38
-2.2550263 -3.8417377 -7.7486038e-06 1.3829344e-38
-2.2439189 -3.8417377 -7.7486038e-06 1.3829344e-38
-2.2328115 -3.8417377 -7.7486038e-06 1.3829344e-38
-2.2254066 -3.8417377 -7.7486038e-06 1.3829344e-38
-2.2142987 -3.8417375 -7.5101852e-06 1.3829344e-38
-2.2031913 -3.8417375 -7.5101852e-06 1.3829344e-38
-2.1957865 -3.8417375 -7.5101852e-06 1.3829344e-38
-2.1846805 -3.8417399 -8.5234642e-06 1.3829344e-38
-2.1735716 -3.8417375 -7.5101852e-06 1.3829344e-38
-2.1661665 -3.8417375 -7.5101852e-06 1.3829344e-38
-2.1550591 -3.8417375 -7.5101852e-06 1.3829344e-38
-2.1439517 -3.8417375 -7.5101852e-06 1.3829344e-38
-2.1365466 -3.8417375 -7.5101852e-06 1.3829344e-38
-2.1254392 -3.8417375 -7.5101852e-06 1.3829344e-38
-2.1143317 -3.8417375 -7.5101852e-06 1.3829344e-38
-2.1069269 -3.8417375 -7.5101852e-06 1.3829344e-38
-2.0958195 -3.8417375 -7.5101852e-06 1.3829344e-38
-2.084712 -3.8417375 -7.5101852e-06 1.3829344e-38
-2.077307 -3.8417375 -7.5101852e-06 1.3829344e-38
-2.0661993 -3.841737 -7.2717667e-06 1.3829344e-38
-2.0550945 -3.8417418 -9.2983246e-06 1.3829344e-38
-2.0439878 -3.841743 -9.8347664e-06 1.3829344e-38
-2.0328791 -3.8417411 -8.9406967e-06 1.3829344e-38
-2.025475 -3.8417428 -9.7751617e-06 1.3829344e-38
-2.0143676 -3.8417425 -9.5963478e-06 1.3829344e-38
-2.0032601 -3.8417428 -9.7751617e-06 1.3829344e-38
-1.9958538 -3.8417394 -8.3446503e-06 1.3829344e-38
-1.9847475 -3.841742 -9.4771385e-06 1.3829344e-38
-1.9736414 -3.8417447 -1.0609627e-05 1.3829344e-38
-1.9662348 -3.8417413 -9.1791153e-06 1.3829344e-38
-1.9551275 -3.8417416 -9.2387199e-06 1.3829344e-38
-1.9440224 -3.8417463 -1.1205673e-05 1.3829344e-38
-1.9366158 -3.841743 -9.894371e-06 1.3829344e-38
-1.9255085 -3.8417435 -9.9539757e-06 1.3829344e-38
-1.9143987 -3.8417387 -8.1062317e-06 1.3829344e-38
-1.906997 -3.8417454 -1.0848045e-05 1.3829344e-38
-1.8958882 -3.8417425 -9.7155571e-06 1.3829344e-38
-1.8847797 -3.8417406 -8.7022781e-06 1.3829344e-38
-1.8773756 -3.8417423 -9.5367432e-06 1.3829344e-38
-1.8662695 -3.8417449 -1.0669231e-05 1.3829344e-38
-1.8551606 -3.8417423 -9.5367432e-06 1.3829344e-38
-1.8440521 -3.8417401 -8.5830688e-06 1.3829344e-38
-1.8329459 -3.8417428 -9.7751617e-06 1.3829344e-38
-1.8255419 -3.8417447 -1.0609627e-05 1.3829344e-38
-1.8144331 -3.841742 -9.3579292e-06 1.3829344e-38
-1.8033246 -3.8417394 -8.3446503e-06 1.3829344e-38
-1.7959205 -3.8417413 -9.1791153e-06 1.3829344e-38
-1.7848108 -3.8417368 -7.212162e-06 1.3829344e-38
-1.7737032 -3.8417366 -7.0333481e-06 1.3829344e-38
1.7362496 -3.8417387 -8.1062317e-06 1.3829344e-38
1.7436541 -3.8417377 -7.7486038e-06 1.3829344e-38
1.7547623 -3.8417392 -8.2850456e-06 1.3829344e-38
1.7658693 -3.8417382 -7.8678131e-06 1.3829344e-38
1.7732748 -3.8417394 -8.3446503e-06 1.3829344e-38
1.7843825 -3.8417401 -8.5830688e-06 1.3829344e-38
1.7954888 -3.8417377 -7.7486038e-06 1.3829344e-38
1.8028934 -3.841737 -7.2717667e-06 1.3829344e-38
1.8140014 -3.8417382 -7.9274178e-06 1.3829344e-38
1.8251096 -3.8417394 -8.3446503e-06 1.3829344e-38
1.836217 -3.8417397 -8.4042549e-06 1.3829344e-38
1.8473245 -3.8417394 -8.3446503e-06 1.3829344e-38
1.8547292 -3.8417392 -8.225441e-06 1.3829344e-38
1.8658366 -3.8417392 -8.225441e-06 1.3829344e-38
1.8769442 -3.8417392 -8.225441e-06 1.3829344e-38
1.8843486 -3.8417382 -7.8678131e-06 1.3829344e-38
1.8954563 -3.8417387 -8.046627e-06 1.3829344e-38
1.906564 -3.8417392 -8.225441e-06 1.3829344e-38
1.9139694 -3.8417401 -8.5830688e-06 1.3829344e-38
1.9250771 -3.8417404 -8.7618828e-06 1.3829344e-38
1.9361835 -3.8417382 -7.8678131e-06 1.3829344e-38
1.9435879 -3.8417375 -7.5101852e-06 1.3829344e-38
1.9546961 -3.8417387 -8.046627e-06 1.3829344e-38
1.9658042 -3.8417401 -8.5830688e-06 1.3829344e-38
1.9732089 -3.8417394 -8.3446503e-06 1.3829344e-38
1.9843161 -3.8417392 -8.225441e-06 1.3829344e-38
1.9954238 -3.8417394 -8.3446503e-06 1.3829344e-38
2.0028296 -3.8417411 -8.9406967e-06 1.3829344e-38
2.013936 -3.8417387 -8.1062317e-06 1.3829344e-38
2.0250432 -3.8417387 -8.1062317e-06 1.3829344e-38
2.0361509 -3.8417392 -8.225441e-06 1.3829344e-38
2.0472581 -3.8417387 -8.1062317e-06 1.3829344e-38
2.0546641 -3.8417406 -8.7022781e-06 1.3829344e-38
2.0657711 -3.8417397 -8.4638596e-06 1.3829344e-38
2.0768781 -3.8417387 -8.1062317e-06 1.3829344e-38
2.0842826 -3.8417377 -7.7486038e-06 1.3829344e-38
2.0953908 -3.8417389 -8.1658363e-06 1.3829344e-38
2.106499 -3.8417406 -8.7022781e-06 1.3829344e-38
2.1139038 -3.8417401 -8.5830688e-06 1.3829344e-38
2.125011 -3.8417401 -8.5830688e-06 1.3829344e-38
2.1361187 -3.8417401 -8.5830688e-06 1.3829344e-38
2.1435244 -3.8417418 -9.2983246e-06 1.3829344e-38
2.1546299 -3.841738 -7.8082085e-06 1.3829344e-38
2.1657381 -3.8417394 -8.3446503e-06 1.3829344e-38
2.1731427 -3.8417387 -8.1062317e-06 1.3829344e-38
2.1842508 -3.8417399 -8.4638596e-06 1.3829344e-38
2.195359 -3.8417413 -9.1791153e-06 1.3829344e-38
2.2027636 -3.8417406 -8.7022781e-06 1.3829344e-38
2.2138705 -3.8417397 -8.4042549e-06 1.3829344e-38
2.2249773 -3.8417382 -7.8678131e-06 1.3829344e-38
2.2360854 -3.8417397 -8.4042549e-06 1.3829344e-38
2.2471924 -3.8417387 -8.1062317e-06 1.3829344e-38
2.2545981 -3.8417401 -8.5830688e-06 1.3829344e-38
2.2657056 -3.8417404 -8.7618828e-06 1.3829344e-38
2.2768133 -3.8417406 -8.7022781e-06 1.3829344e-38
2.2842193 -3.8417423 -9.5367432e-06 1.3829344e-38
2.2953243 -3.8417385 -7.9870224e-06 1.3829344e-38
2.306433 -3.8417401 -8.5830688e-06 1.3829344e-38
2.3138373 -3.8417392 -8.225441e-06 1.3829344e-38
2.3249454 -3.8417404 -8.6426735e-06 1.3829344e-38
2.3360522 -3.8417392 -8.225441e-06 1.3829344e-38
2.3434582 -3.8417411 -8.9406967e-06 1.3829344e-38
2.3545642 -3.8417387 -7.8678131e-06 1.3829344e-38
2.36567 -3.8417358 -6.6757202e-06 1.3829344e-38
2.3730729 -3.8417325 -5.364418e-06 1.3829344e-38
2.3841815 -3.8417344 -6.1988831e-06 1.3829344e-38
-2.3344331 -3.8230519 -7.390976e-06 1.3829344e-38
-2.3270578 -3.8230519 -7.390976e-06 1.3829344e-38
-2.3159947 -3.8230519 -7.390976e-06 1.3829344e-38
-2.3049316 -3.8230519 -7.390976e-06 1.3829344e-38
-2.2938685 -3.8230519 -7.390976e-06 1.3829344e-38
-2.2828054 -3.8230519 -7.390976e-06 1.3829344e-38
-2.27543 -3.8230519 -7.390976e-06 1.3829344e-38
-2.2643669 -3.8230517 -7.3313713e-06 1.3829344e-38
-2.2533038 -3.8230515 -7.2717667e-06 1.3829344e-38
-2.2459283 -3.8230515 -7.2717667e-06 1.3829344e-38
-2.2348652 -3.8230515 -7.2717667e-06 1.3829344e-38
-2.2238021 -3.8230515 -7.2717667e-06 1.3829344e-38
-2.2164268 -3.8230515 -7.2717667e-06 1.3829344e-38
-2.2053638 -3.8230515 -7.2717667e-06 1.3829344e-38
-2.1943007 -3.8230515 -7.2717667e-06 1.3829344e-38
-2.186928 -3.8230565 -9.2983246e-06 1.3829344e-38
-2.1758652 -3.8230565 -9.2983246e-06 1.3829344e-38
-2.1648021 -3.8230565 -9.2983246e-06 1.3829344e-38
-2.153739 -3.8230565 -9.2983246e-06 1.3829344e-38
-2.1426759 -3.8230565 -9.2983246e-06 1.3829344e-38
-2.1353004 -3.8230565 -9.2983246e-06 1.3829344e-38
-2.1242347 -3.8230515 -7.2717667e-06 1.3829344e-38
-2.1131713 -3.8230512 -7.0333481e-06 1.3829344e-38
-2.1057959 -3.8230512 -7.0333481e-06 1.3829344e-38
-2.0947328 -3.8230512 -7.0333481e-06 1.3829344e-38
-2.0836697 -3.8230512 -7.0333481e-06 1.3829344e-38
-2.0762944 -3.8230512 -7.0333481e-06 1.3829344e-38
-2.0652313 -3.8230512 -7.0333481e-06 1.3829344e-38
-2.0541682 -3.8230512 -7.0333481e-06 1.3829344e-38
-2.046793 -3.8230512 -7.0333481e-06 1.3829344e-38
-2.0357299 -3.8230512 -7.0333481e-06 1.3829344e-38
-2.0246668 -3.8230512 -7.0333481e-06 1.3829344e-38
-2.0172906 -3.8230498 -6.4373016e-06 1.3829344e-38
-2.0062289 -3.8230524 -7.6293945e-06 1.3829344e-38
-1.995165 -3.8230503 -6.6757202e-06 1.3829344e-38
-1.9841021 -3.8230507 -6.7949295e-06 1.3829344e-38
-1.9730418 -3.823056 -9.059906e-06 1.3829344e-38
-1.9656647 -3.8230531 -7.8678131e-06 1.3829344e-38
-1.954602 -3.8230534 -8.046627e-06 1.3829344e-38
-1.9435366 -3.8230491 -6.1988831e-06 1.3829344e-38
-1.9361646 -3.8230555 -8.9406967e-06 1.3829344e-38
-1.9251004 -3.8230534 -8.046627e-06 1.3829344e-38
-1.9140365 -3.8230515 -7.2717667e-06 1.3829344e-38
-1.9066595 -3.8230486 -5.9604645e-06 1.3829344e-38
-1.895599 -3.8230534 -8.046627e-06 1.3829344e-38
-1.8845363 -3.8230543 -8.4638596e-06 1.3829344e-38
-1.8771594 -3.8230512 -7.0333481e-06 1.3829344e-38
-1.8660965 -3.8230515 -7.2717667e-06 1.3829344e-38
-1.8550334 -3.8230515 -7.2717667e-06 1.3829344e-38
-1.8439708 -3.8230524 -7.5101852e-06 1.3829344e-38
-1.8329054 -3.8230479 -5.6028366e-06 1.3829344e-38
-1.8255333 -3.8230543 -8.4638596e-06 1.3829344e-38
-1.8144692 -3.8230524 -7.5101852e-06 1.3829344e-38
-1.8034052 -3.8230503 -6.6757202e-06 1.3829344e-38
-1.7960306 -3.8230519 -7.390976e-06 1.3829344e-38
-1.7849678 -3.8230524 -7.6293945e-06 1.3829344e-38
-1.7739049 -3.8230531 -7.8678131e-06 1.3829344e-38
1.7367755 -3.8230526 -7.6293945e-06 1.3829344e-38
1.7441517 -3.8230543 -8.4638596e-06 1.3829344e-38
1.7552146 -3.8230538 -8.225441e-06 1.3829344e-38
1.7662783 -3.823055 -8.7022781e-06 1.3829344e-38
1.7736522 -3.8230519 -7.390976e-06 1.3829344e-38
1.784716 -3.8230538 -8.225441e-06 1.3829344e-38
1.7957788 -3.8230531 -7.8678131e-06 1.3829344e-38
1.8031549 -3.8230548 -8.7022781e-06 1.3829344e-38
1.8142171 -3.8230529 -7.8082085e-06 1.3829344e-38
1.8252802 -3.8230531 -7.8678131e-06 1.3829344e-38
1.8326565 -3.8230548 -8.7022781e-06 1.3829344e-38
1.8437192 -3.8230543 -8.4638596e-06 1.3829344e-38
1.854782 -3.8230534 -7.9870224e-06 1.3829344e-38
1.865845 -3.8230534 -8.046627e-06 1.3829344e-38
1.8769085 -3.8230543 -8.4638596e-06 1.3829344e-38
1.8842834 -3.8230534 -7.9870224e-06 1.3829344e-38
1.8953466 -3.8230534 -8.046627e-06 1.3829344e-38
1.9064099 -3.8230538 -8.225441e-06 1.3829344e-38
1.9137852 -3.8230538 -8.225441e-06 1.3829344e-38
1.924849 -3.8230553 -8.8214874e-06 1.3829344e-38
1.9359102 -3.8230515 -7.2717667e-06 1.3829344e-38
1.9432865 -3.8230534 -7.9870224e-06 1.3829344e-38
1.95435 -3.8230543 -8.3446503e-06 1.3829344e-38
1.9654131 -3.8230543 -8.4638596e-06 1.3829344e-38
1.9727882 -3.8230538 -8.225441e-06 1.3829344e-38
1.983851 -3.8230534 -7.9274178e-06 1.3829344e-38
1.9949147 -3.8230543 -8.4638596e-06 1.3829344e-38
2.0059781 -3.8230548 -8.5830688e-06 1.3829344e-38
2.0170403 -3.8230531 -7.8678131e-06 1.3829344e-38
2.0244153 -3.8230526 -7.6293945e-06 1.3829344e-38
2.0354791 -3.8230536 -8.1062317e-06 1.3829344e-38
2.0465431 -3.8230555 -8.9406967e-06 1.3829344e-38
2.0539184 -3.823055 -8.7022781e-06 1.3829344e-38
2.06498 -3.8230529 -7.8082085e-06 1.3829344e-38
2.0760434 -3.8230534 -7.9870224e-06 1.3829344e-38
2.0834198 -3.823055 -8.7022781e-06 1.3829344e-38
2.0944829 -3.8230553 -8.8810921e-06 1.3829344e-38
2.105545 -3.8230534 -7.9870224e-06 1.3829344e-38
2.11292 -3.8230531 -7.8678131e-06 1.3829344e-38
2.1239841 -3.8230546 -8.5830688e-06 1.3829344e-38
2.1350477 -3.8230555 -8.9406967e-06 1.3829344e-38
2.1461091 -3.8230529 -7.7486038e-06 1.3829344e-38
2.1571732 -3.8230543 -8.4638596e-06 1.3829344e-38
2.1645484 -3.8230538 -8.225441e-06 1.3829344e-38
2.175612 -3.823055 -8.7022781e-06 1.3829344e-38
2.1866746 -3.8230543 -8.4638596e-06 1.3829344e-38
2.1940501 -3.8230543 -8.4638596e-06 1.3829344e-38
2.2051129 -3.8230541 -8.2850456e-06 1.3829344e-38
2.2161765 -3.8230548 -8.7022781e-06 1.3829344e-38
2.2235529 -3.8230565 -9.2983246e-06 1.3829344e-38
2.2346139 -3.8230534 -7.9274178e-06 1.3829344e-38
2.2456779 -3.8230548 -8.7022781e-06 1.3829344e-38
2.2530532 -3.8230543 -8.4638596e-06 1.3829344e-38
2.2641163 -3.8230546 -8.4638596e-06 1.3829344e-38
2.2751782 -3.8230526 -7.6293945e-06 1.3829344e-38
2.2862422 -3.8230541 -8.3446503e-06 1.3829344e-38
2.2973065 -3.823056 -9.059906e-06 1.3829344e-38
2.3046813 -3.823055 -8.7022781e-06 1.3829344e-38
2.3157439 -3.8230541 -8.3446503e-06 1.3829344e-38
2.3268063 -3.8230534 -7.9870224e-06 1.3829344e-38
2.3341832 -3.8230555 -8.9406967e-06 1.3829344e-38
2.3452463 -3.8230557 -9.0003014e-06 1.3829344e-38
2.356308 -3.8230534 -7.9870224e-06 1.3829344e-38
2.363683 -3.8230531 -7.8678131e-06 1.3829344e-38
2.374747 -3.8230546 -8.5830688e-06 1.3829344e-38
-2.3250556 -3.8045151 -7.2717667e-06 1.3829344e-38
-2.3140364 -3.8045151 -7.2717667e-06 1.3829344e-38
-2.3030174 -3.8045151 -7.2717667e-06 1.3829344e-38
-2.2956715 -3.8045151 -7.2717667e-06 1.3829344e-38
-2.2846522 -3.8045151 -7.2717667e-06 1.3829344e-38
-2.2736332 -3.8045151 -7.2717667e-06 1.3829344e-38
-2.2662871 -3.8045146 -7.1525574e-06 1.3829344e-38
-2.2552681 -3.8045146 -7.1525574e-06 1.3829344e-38
-2.2442489 -3.8045146 -7.1525574e-06 1.3829344e-38
-2.236903 -3.8045146 -7.1525574e-06 1.3829344e-38
-2.225884 -3.8045146 -7.1525574e-06 1.3829344e-38
-2.214865 -3.8045146 -7.1525574e-06 1.3829344e-38
-2.203846 -3.8045146 -7.1525574e-06 1.3829344e-38
-2.1928267 -3.8045146 -7.1525574e-06 1.3829344e-38
-2.1854837 -3.8045197 -9.1791153e-06 1.3829344e-38
-2.1744647 -3.8045197 -9.1791153e-06 1.3829344e-38
-2.1634455 -3.8045197 -9.1791153e-06 1.3829344e-38
-2.1560996 -3.8045197 -9.1791153e-06 1.3829344e-38
-2.1450806 -3.8045197 -9.1791153e-06 1.3829344e-38
-2.1340613 -3.8045197 -9.1791153e-06 1.3829344e-38
-2.1267154 -3.8045197 -9.1791153e-06 1.3829344e-38
-2.115696 -3.8045192 -8.9406967e-06 1.3829344e-38
-2.104677 -3.8045192 -8.9406967e-06 1.3829344e-38
-2.097331 -3.8045192 -8.9406967e-06 1.3829344e-38
-2.0863118 -3.8045192 -8.9406967e-06 1.3829344e-38
-2.0752928 -3.8045192 -8.9406967e-06 1.3829344e-38
-2.064271 -3.8045142 -6.9141388e-06 1.3829344e-38
-2.053252 -3.8045142 -6.9141388e-06 1.3829344e-38
-2.0459061 -3.8045142 -6.9141388e-06 1.3829344e-38
-2.0348868 -3.8045142 -6.9141388e-06 1.3829344e-38
-2.0238678 -3.8045142 -6.9141388e-06 1.3829344e-38
-2.0165219 -3.8045142 -6.9141388e-06 1.3829344e-38
-2.0055027 -3.8045135 -6.6161156e-06 1.3829344e-38
-1.9944872 -3.8045199 -9.4175339e-06 1.3829344e-38
-1.9871396 -3.8045173 -8.225441e-06 1.3829344e-38
-1.9761198 -3.8045158 -7.5697899e-06 1.3829344e-38
-1.9651027 -3.8045197 -9.1791153e-06 1.3829344e-38
-1.9540827 -3.804518 -8.4638596e-06 1.3829344e-38
-1.9430629 -3.8045163 -7.7486038e-06 1.3829344e-38
-1.9357156 -3.8045139 -6.6757202e-06 1.3829344e-38
-1.9246995 -3.8045197 -9.1791153e-06 1.3829344e-38
-1.9136784 -3.8045156 -7.5101852e-06 1.3829344e-38
-1.9063334 -3.804518 -8.3446503e-06 1.3829344e-38
-1.8953136 -3.8045163 -7.7486038e-06 1.3829344e-38
-1.8842963 -3.8045197 -9.1791153e-06 1.3829344e-38
-1.876949 -3.8045168 -7.9870224e-06 1.3829344e-38
-1.8659291 -3.8045154 -7.3313713e-06 1.3829344e-38
-1.8549117 -3.8045187 -8.7022781e-06 1.3829344e-38
-1.8438919 -3.8045173 -8.1658363e-06 1.3829344e-38
-1.832872 -3.8045156 -7.5101852e-06 1.3829344e-38
-1.8255249 -3.8045135 -6.5565109e-06 1.3829344e-38
-1.8145087 -3.8045192 -8.9406967e-06 1.3829344e-38
-1.8034878 -3.8045151 -7.2717667e-06 1.3829344e-38
-1.7961428 -3.8045173 -8.225441e-06 1.3829344e-38
-1.785123 -3.8045158 -7.5697899e-06 1.3829344e-38
-1.7741055 -3.8045192 -8.9406967e-06 1.3829344e-38
1.7372988 -3.8045187 -8.7022781e-06 1.3829344e-38
1.7446449 -3.8045187 -8.7022781e-06 1.3829344e-38
1.7556634 -3.8045173 -8.1658363e-06 1.3829344e-38
1.7666827 -3.8045182 -8.5830688e-06 1.3829344e-38
1.7740299 -3.8045204 -9.5367432e-06 1.3829344e-38
1.7850478 -3.804518 -8.3446503e-06 1.3829344e-38
1.7960677 -3.8045199 -9.4175339e-06 1.3829344e-38
1.8034126 -3.8045173 -8.225441e-06 1.3829344e-38
1.8144326 -3.8045194 -9.059906e-06 1.3829344e-38
1.8254515 -3.8045192 -8.9406967e-06 1.3829344e-38
1.8327975 -3.8045192 -8.9406967e-06 1.3829344e-38
1.8438163 -3.8045185 -8.6426735e-06 1.3829344e-38
1.8548352 -3.8045182 -8.5830688e-06 1.3829344e-38
1.8658547 -3.8045192 -9.059906e-06 1.3829344e-38
1.8768729 -3.8045173 -8.225441e-06 1.3829344e-38
1.8842202 -3.8045199 -9.4175339e-06 1.3829344e-38
1.8952385 -3.8045185 -8.7022781e-06 1.3829344e-38
1.9062581 -3.8045197 -9.1791153e-06 1.3829344e-38
1.9136039 -3.8045192 -8.9406967e-06 1.3829344e-38
1.9246228 -3.8045187 -8.7022781e-06 1.3829344e-38
1.9356418 -3.8045187 -8.7022781e-06 1.3829344e-38
1.9429876 -3.8045182 -8.5830688e-06 1.3829344e-38
1.9540071 -3.8045192 -8.9406967e-06 1.3829344e-38
1.9650254 -3.804518 -8.3446503e-06 1.3829344e-38
1.9760449 -3.8045187 -8.8214874e-06 1.3829344e-38
1.9870645 -3.8045197 -9.1791153e-06 1.3829344e-38
1.9944105 -3.8045197 -9.1791153e-06 1.3829344e-38
2.0054293 -3.8045192 -8.9406967e-06 1.3829344e-38
2.0164483 -3.8045187 -8.7022781e-06 1.3829344e-38
2.0237944 -3.8045187 -8.7022781e-06 1.3829344e-38
2.0348139 -3.8045197 -9.1195107e-06 1.3829344e-38
2.0458319 -3.804518 -8.3446503e-06 1.3829344e-38
2.0531781 -3.804518 -8.3446503e-06 1.3829344e-38
2.0641975 -3.8045187 -8.8214874e-06 1.3829344e-38
2.0752172 -3.8045199 -9.4175339e-06 1.3829344e-38
2.086236 -3.8045192 -8.9406967e-06 1.3829344e-38
2.097255 -3.8045192 -8.9406967e-06 1.3829344e-38
2.1046009 -3.8045192 -8.9406967e-06 1.3829344e-38
2.1156197 -3.8045185 -8.6426735e-06 1.3829344e-38
2.1266398 -3.8045204 -9.5367432e-06 1.3829344e-38
2.1339846 -3.8045182 -8.5830688e-06 1.3829344e-38
2.1450038 -3.8045189 -8.8810921e-06 1.3829344e-38
2.1560221 -3.8045173 -8.225441e-06 1.3829344e-38
2.1633694 -3.8045197 -9.1791153e-06 1.3829344e-38
2.1743879 -3.8045182 -8.5830688e-06 1.3829344e-38
2.1854074 -3.8045192 -8.9406967e-06 1.3829344e-38
2.1927533 -3.8045192 -8.9406967e-06 1.3829344e-38
2.2037721 -3.8045187 -8.7022781e-06 1.3829344e-38
2.2147925 -3.8045208 -9.7751617e-06 1.3829344e-38
2.2258096 -3.804518 -8.3446503e-06 1.3829344e-38
2.2368302 -3.8045204 -9.5367432e-06 1.3829344e-38
2.2441747 -3.804518 -8.3446503e-06 1.3829344e-38
2.2551949 -3.8045197 -9.1791153e-06 1.3829344e-38
2.2662125 -3.8045168 -7.9870224e-06 1.3829344e-38
2.2735598 -3.8045192 -8.9406967e-06 1.3829344e-38
2.2845788 -3.8045189 -8.8214874e-06 1.3829344e-38
2.2955976 -3.8045187 -8.7022781e-06 1.3829344e-38
2.3029449 -3.8045208 -9.7751617e-06 1.3829344e-38
2.3139622 -3.8045182 -8.4638596e-06 1.3829344e-38
2.3249824 -3.8045199 -9.4175339e-06 1.3829344e-38
2.3360007 -3.8045187 -8.7618828e-06 1.3829344e-38
2.3470204 -3.8045197 -9.1791153e-06 1.3829344e-38
2.3543663 -3.8045197 -9.1791153e-06 1.3829344e-38
2.3653851 -3.8045192 -8.9406967e-06 1.3829344e-38
-2.3157532 -3.7861269 -7.7486038e-06 1.3829344e-38
-2.3047781 -3.7861269 -7.7486038e-06 1.3829344e-38
-2.2938025 -3.7861269 -7.7486038e-06 1.3829344e-38
-2.2864857 -3.7861269 -7.7486038e-06 1.3829344e-38
-2.2755103 -3.7861269 -7.7486038e-06 1.3829344e-38
-2.264535 -3.7861269 -7.7486038e-06 1.3829344e-38
-2.2572181 -3.7861269 -7.7486038e-06 1.3829344e-38
-2.2462425 -3.7861269 -7.7486038e-06 1.3829344e-38
-2.2352669 -3.7861264 -7.6293945e-06 1.3829344e-38
-2.2242918 -3.7861264 -7.6293945e-06 1.3829344e-38
-2.2133162 -3.7861264 -7.6293945e-06 1.3829344e-38
-2.2059994 -3.7861264 -7.6293945e-06 1.3829344e-38
-2.195024 -3.7861264 -7.6293945e-06 1.3829344e-38
-2.1840515 -3.7861311 -9.6559525e-06 1.3829344e-38
-2.1767344 -3.7861311 -9.6559525e-06 1.3829344e-38
-2.1657591 -3.7861311 -9.6559525e-06 1.3829344e-38
-2.1547837 -3.7861311 -9.6559525e-06 1.3829344e-38
-2.1438084 -3.7861311 -9.6559525e-06 1.3829344e-38
-2.132833 -3.7861311 -9.6559525e-06 1.3829344e-38
-2.1255162 -3.7861311 -9.6559525e-06 1.3829344e-38
-2.1145406 -3.7861311 -9.6559525e-06 1.3829344e-38
-2.1035655 -3.7861311 -9.6559525e-06 1.3829344e-38
-2.0962484 -3.7861311 -9.6559525e-06 1.3829344e-38
-2.0852728 -3.7861304 -9.4175339e-06 1.3829344e-38
-2.0742974 -3.7861304 -9.4175339e-06 1.3829344e-38
-2.0669806 -3.7861304 -9.4175339e-06 1.3829344e-38
-2.056005 -3.7861304 -9.4175339e-06 1.3829344e-38
-2.0450296 -3.7861304 -9.4175339e-06 1.3829344e-38
-2.0340543 -3.7861304 -9.4175339e-06 1.3829344e-38
-2.0230789 -3.7861304 -9.4175339e-06 1.3829344e-38
-2.0157595 -3.7861259 -7.390976e-06 1.3829344e-38
-2.0047841 -3.7861259 -7.390976e-06 1.3829344e-38
-1.9938089 -3.7861259 -7.390976e-06 1.3829344e-38
-1.9864918 -3.7861259 -7.390976e-06 1.3829344e-38
-1.9755173 -3.7861271 -8.046627e-06 1.3829344e-38
-1.9645402 -3.786124 -6.5565109e-06 1.3829344e-38
-1.9572222 -3.7861218 -5.7220459e-06 1.3829344e-38
-1.9462504 -3.7861285 -8.6426735e-06 1.3829344e-38
-1.9352733 -3.7861252 -7.2717667e-06 1.3829344e-38
-1.924299 -3.7861273 -7.9870224e-06 1.3829344e-38
-1.9133244 -3.7861288 -8.7022781e-06 1.3829344e-38
-1.9060066 -3.7861271 -7.9870224e-06 1.3829344e-38
-1.8950295 -3.7861238 -6.5565109e-06 1.3829344e-38
-1.8840576 -3.7861304 -9.4175339e-06 1.3829344e-38
-1.8767396 -3.7861285 -8.4638596e-06 1.3829344e-38
-1.8657627 -3.7861254 -7.212162e-06 1.3829344e-38
-1.8547882 -3.7861271 -7.9870224e-06 1.3829344e-38
-1.8438135 -3.7861285 -8.6426735e-06 1.3829344e-38
-1.8328367 -3.7861259 -7.390976e-06 1.3829344e-38
-1.8255188 -3.7861235 -6.3180923e-06 1.3829344e-38
-1.8145455 -3.7861278 -8.2850456e-06 1.3829344e-38
-1.8035698 -3.7861271 -7.9870224e-06 1.3829344e-38
-1.7962518 -3.7861249 -7.0333481e-06 1.3829344e-38
-1.7852763 -3.7861247 -6.7949295e-06 1.3829344e-38
-1.7743028 -3.7861285 -8.4638596e-06 1.3829344e-38
1.7378168 -3.7861288 -8.7022781e-06 1.3829344e-38
1.7451327 -3.7861269 -7.7486038e-06 1.3829344e-38
1.756109 -3.7861285 -8.5234642e-06 1.3829344e-38
1.7670841 -3.786128 -8.4638596e-06 1.3829344e-38
1.7744009 -3.786128 -8.4638596e-06 1.3829344e-38
1.7853761 -3.7861276 -8.1658363e-06 1.3829344e-38
1.7963513 -3.7861271 -7.9870224e-06 1.3829344e-38
1.8036695 -3.7861297 -9.059906e-06 1.3829344e-38
1.8146439 -3.7861278 -8.3446503e-06 1.3829344e-38
1.8256196 -3.7861285 -8.4638596e-06 1.3829344e-38
1.8329355 -3.7861264 -7.6293945e-06 1.3829344e-38
1.8439118 -3.786128 -8.4638596e-06 1.3829344e-38
1.8548881 -3.7861302 -9.2983246e-06 1.3829344e-38
1.8658624 -3.7861278 -8.3446503e-06 1.3829344e-38
1.876838 -3.7861285 -8.4638596e-06 1.3829344e-38
1.8841538 -3.7861264 -7.6293945e-06 1.3829344e-38
1.8951302 -3.786128 -8.3446503e-06 1.3829344e-38
1.9061064 -3.7861297 -9.059906e-06 1.3829344e-38
1.9134221 -3.7861276 -8.225441e-06 1.3829344e-38
1.9243979 -3.7861285 -8.4638596e-06 1.3829344e-38
1.9353735 -3.7861288 -8.7022781e-06 1.3829344e-38
1.9426907 -3.7861292 -8.9406967e-06 1.3829344e-38
1.9536653 -3.7861276 -8.225441e-06 1.3829344e-38
1.9646407 -3.786128 -8.4638596e-06 1.3829344e-38
1.9756165 -3.7861285 -8.5830688e-06 1.3829344e-38
1.9865919 -3.7861288 -8.7022781e-06 1.3829344e-38
1.9939089 -3.7861288 -8.7022781e-06 1.3829344e-38
2.0048842 -3.7861285 -8.6426735e-06 1.3829344e-38
2.0158591 -3.786128 -8.4638596e-06 1.3829344e-38
2.0231764 -3.7861285 -8.4638596e-06 1.3829344e-38
2.034152 -3.7861285 -8.5830688e-06 1.3829344e-38
2.0451264 -3.7861271 -7.9870224e-06 1.3829344e-38
2.0561028 -3.7861285 -8.6426735e-06 1.3829344e-38
2.0670776 -3.786128 -8.4638596e-06 1.3829344e-38
2.0743949 -3.7861285 -8.4638596e-06 1.3829344e-38
2.0853698 -3.7861278 -8.2850456e-06 1.3829344e-38
2.0963449 -3.7861271 -7.9870224e-06 1.3829344e-38
2.1036632 -3.7861297 -9.059906e-06 1.3829344e-38
2.1146383 -3.7861292 -8.9406967e-06 1.3829344e-38
2.1256132 -3.7861285 -8.4638596e-06 1.3829344e-38
2.1329288 -3.7861264 -7.6293945e-06 1.3829344e-38
2.1439054 -3.786128 -8.4638596e-06 1.3829344e-38
2.154882 -3.7861302 -9.2983246e-06 1.3829344e-38
2.1658559 -3.7861278 -8.3446503e-06 1.3829344e-38
2.1768317 -3.7861285 -8.4638596e-06 1.3829344e-38
2.1841488 -3.7861288 -8.7022781e-06 1.3829344e-38
2.1951239 -3.786128 -8.4638596e-06 1.3829344e-38
2.2061 -3.7861297 -9.059906e-06 1.3829344e-38
2.2134161 -3.786128 -8.4638596e-06 1.3829344e-38
2.2243917 -3.7861285 -8.5830688e-06 1.3829344e-38
2.2353673 -3.7861288 -8.7022781e-06 1.3829344e-38
2.2426844 -3.7861292 -8.9406967e-06 1.3829344e-38
2.2536595 -3.7861285 -8.6426735e-06 1.3829344e-38
2.2646344 -3.786128 -8.4638596e-06 1.3829344e-38
2.27561 -3.7861285 -8.5830688e-06 1.3829344e-38
2.2865856 -3.7861288 -8.7022781e-06 1.3829344e-38
2.2939031 -3.7861297 -9.059906e-06 1.3829344e-38
2.3048778 -3.786129 -8.7618828e-06 1.3829344e-38
2.3158529 -3.786128 -8.4638596e-06 1.3829344e-38
2.3231702 -3.7861288 -8.7022781e-06 1.3829344e-38
2.3341458 -3.786129 -8.8214874e-06 1.3829344e-38
2.34512 -3.7861271 -7.9870224e-06 1.3829344e-38
2.3560965 -3.786129 -8.8810921e-06 1.3829344e-38
-2.3065233 -3.7678816 -7.5101852e-06 1.3829344e-38
-2.2955899 -3.7678792 -6.4373016e-06 1.3829344e-38
-2.2846563 -3.7678769 -5.364418e-06 1.3829344e-38
-2.2737243 -3.7678769 -5.364418e-06 1.3829344e-38
-2.2627923 -3.7678769 -5.364418e-06 1.3829344e-38
-2.2555041 -3.7678769 -5.364418e-06 1.3829344e-38
-2.2445722 -3.7678769 -5.364418e-06 1.3829344e-38
-2.2336402 -3.7678769 -5.364418e-06 1.3829344e-38
-2.2263522 -3.7678769 -5.364418e-06 1.3829344e-38
-2.2154202 -3.7678769 -5.364418e-06 1.3829344e-38
-2.204488 -3.7678769 -5.364418e-06 1.3829344e-38
-2.1972001 -3.7678769 -5.364418e-06 1.3829344e-38
-2.1862695 -3.7678792 -6.4373016e-06 1.3829344e-38
-2.175339 -3.7678816 -7.5101852e-06 1.3829344e-38
-2.1644068 -3.7678814 -7.390976e-06 1.3829344e-38
-2.1534746 -3.7678812 -7.2717667e-06 1.3829344e-38
-2.1461866 -3.7678812 -7.2717667e-06 1.3829344e-38
-2.1352546 -3.7678812 -7.2717667e-06 1.3829344e-38
-2.1243224 -3.7678812 -7.2717667e-06 1.3829344e-38
-2.1170344 -3.7678812 -7.2717667e-06 1.3829344e-38
-2.1061025 -3.7678812 -7.2717667e-06 1.3829344e-38
-2.0951705 -3.7678812 -7.2717667e-06 1.3829344e-38
-2.0842385 -3.7678812 -7.2717667e-06 1.3829344e-38
-2.0733063 -3.7678812 -7.2717667e-06 1.3829344e-38
-2.0660183 -3.7678812 -7.2717667e-06 1.3829344e-38
-2.0550864 -3.7678812 -7.2717667e-06 1.3829344e-38
-2.0441542 -3.7678812 -7.2717667e-06 1.3829344e-38
-2.0368662 -3.7678812 -7.2717667e-06 1.3829344e-38
-2.0259342 -3.7678812 -7.2717667e-06 1.3829344e-38
-2.0150023 -3.7678812 -7.2717667e-06 1.3829344e-38
-2.0040698 -3.7678807 -7.0333481e-06 1.3829344e-38
-1.993138 -3.7678807 -7.0333481e-06 1.3829344e-38
-1.98585 -3.7678807 -7.0333481e-06 1.3829344e-38
-1.9749179 -3.7678807 -7.0333481e-06 1.3829344e-38
-1.9639857 -3.7678804 -7.0333481e-06 1.3829344e-38
-1.956697 -3.7678788 -6.3180923e-06 1.3829344e-38
-1.9457653 -3.7678795 -6.5565109e-06 1.3829344e-38
-1.9348334 -3.76788 -6.7949295e-06 1.3829344e-38
-1.9239004 -3.7678778 -5.9008598e-06 1.3829344e-38
-1.9129697 -3.7678807 -7.0333481e-06 1.3829344e-38
-1.905681 -3.7678792 -6.5565109e-06 1.3829344e-38
-1.8947505 -3.7678823 -7.7486038e-06 1.3829344e-38
-1.8838174 -3.7678804 -7.0333481e-06 1.3829344e-38
-1.8765312 -3.7678838 -8.4638596e-06 1.3829344e-38
-1.8655982 -3.7678819 -7.5697899e-06 1.3829344e-38
-1.8546652 -3.76788 -6.7949295e-06 1.3829344e-38
-1.8437333 -3.7678804 -6.9141388e-06 1.3829344e-38
-1.8328016 -3.7678807 -7.0333481e-06 1.3829344e-38
-1.8255129 -3.7678792 -6.5565109e-06 1.3829344e-38
-1.8145798 -3.7678776 -5.6624413e-06 1.3829344e-38
-1.8036492 -3.7678804 -7.0333481e-06 1.3829344e-38
-1.7963606 -3.7678788 -6.3180923e-06 1.3829344e-38
-1.78543 -3.7678819 -7.5697899e-06 1.3829344e-38
-1.7744969 -3.76788 -6.7949295e-06 1.3829344e-38
1.7383288 -3.7678804 -7.0333481e-06 1.3829344e-38
1.7456175 -3.7678816 -7.5101852e-06 1.3829344e-38
1.7529049 -3.7678804 -7.0333481e-06 1.3829344e-38
1.7638378 -3.7678823 -7.7486038e-06 1.3829344e-38
1.7747693 -3.7678812 -7.2717667e-06 1.3829344e-38
1.7857018 -3.7678819 -7.5697899e-06 1.3829344e-38
1.7966338 -3.7678821 -7.6293945e-06 1.3829344e-38
1.8039212 -3.7678807 -7.0333481e-06 1.3829344e-38
1.8148534 -3.7678809 -7.2717667e-06 1.3829344e-38
1.8257858 -3.7678816 -7.5101852e-06 1.3829344e-38
1.8330743 -3.7678828 -7.9870224e-06 1.3829344e-38
1.8440058 -3.7678819 -7.5697899e-06 1.3829344e-38
1.8549376 -3.7678812 -7.2717667e-06 1.3829344e-38
1.8658693 -3.7678804 -7.0333481e-06 1.3829344e-38
1.8768021 -3.7678821 -7.6293945e-06 1.3829344e-38
1.8840908 -3.7678833 -8.225441e-06 1.3829344e-38
1.8950224 -3.7678823 -7.8082085e-06 1.3829344e-38
1.905954 -3.7678816 -7.5101852e-06 1.3829344e-38
1.9132413 -3.7678804 -7.0333481e-06 1.3829344e-38
1.9241736 -3.7678809 -7.1525574e-06 1.3829344e-38
1.9351072 -3.7678838 -8.4638596e-06 1.3829344e-38
1.946038 -3.7678816 -7.4505806e-06 1.3829344e-38
1.9569703 -3.7678821 -7.6293945e-06 1.3829344e-38
1.964258 -3.7678812 -7.2717667e-06 1.3829344e-38
1.9751902 -3.7678814 -7.3313713e-06 1.3829344e-38
1.9861236 -3.7678843 -8.7022781e-06 1.3829344e-38
1.9934107 -3.7678826 -7.8678131e-06 1.3829344e-38
2.0043426 -3.7678821 -7.6889992e-06 1.3829344e-38
2.015274 -3.7678812 -7.2717667e-06 1.3829344e-38
2.0262065 -3.7678819 -7.5697899e-06 1.3829344e-38
2.0371387 -3.7678821 -7.6293945e-06 1.3829344e-38
2.0444272 -3.7678828 -7.9870224e-06 1.3829344e-38
2.0553591 -3.7678823 -7.8082085e-06 1.3829344e-38
2.0662909 -3.7678821 -7.6293945e-06 1.3829344e-38
2.0735781 -3.7678807 -7.0333481e-06 1.3829344e-38
2.0845103 -3.7678809 -7.2717667e-06 1.3829344e-38
2.0954437 -3.7678833 -8.225441e-06 1.3829344e-38
2.1027312 -3.7678826 -7.8678131e-06 1.3829344e-38
2.1136632 -3.7678828 -7.9274178e-06 1.3829344e-38
2.1245942 -3.7678807 -7.0333481e-06 1.3829344e-38
2.1355267 -3.7678814 -7.3313713e-06 1.3829344e-38
2.1464603 -3.7678843 -8.7022781e-06 1.3829344e-38
2.1537476 -3.7678828 -7.9870224e-06 1.3829344e-38
2.1646793 -3.7678823 -7.7486038e-06 1.3829344e-38
2.175611 -3.7678816 -7.5101852e-06 1.3829344e-38
2.1828995 -3.7678826 -7.8678131e-06 1.3829344e-38
2.193831 -3.7678814 -7.3313713e-06 1.3829344e-38
2.2047641 -3.7678833 -8.225441e-06 1.3829344e-38
2.2156954 -3.7678823 -7.7486038e-06 1.3829344e-38
2.2266271 -3.7678816 -7.5101852e-06 1.3829344e-38
2.2339158 -3.7678828 -7.9870224e-06 1.3829344e-38
2.2448468 -3.7678809 -7.2717667e-06 1.3829344e-38
2.2557805 -3.7678838 -8.4638596e-06 1.3829344e-38
2.2630677 -3.7678826 -7.8678131e-06 1.3829344e-38
2.2740002 -3.7678833 -8.1658363e-06 1.3829344e-38
2.2849324 -3.7678833 -8.225441e-06 1.3829344e-38
2.2958632 -3.7678812 -7.2717667e-06 1.3829344e-38
2.3067954 -3.7678816 -7.5101852e-06 1.3829344e-38
2.3140838 -3.7678826 -7.8678131e-06 1.3829344e-38
2.3250165 -3.7678833 -8.1658363e-06 1.3829344e-38
2.3359473 -3.7678812 -7.2717667e-06 1.3829344e-38
2.343236 -3.7678826 -7.8678131e-06 1.3829344e-38
2.3505232 -3.7678812 -7.2717667e-06 1.3829344e-38
-2.2937393 -3.7497847 -9.2983246e-06 1.3829344e-38
-2.2828503 -3.7497847 -9.2983246e-06 1.3829344e-38
-2.2755909 -3.7497847 -9.2983246e-06 1.3829344e-38
-2.2647018 -3.7497847 -9.2983246e-06 1.3829344e-38
-2.2538128 -3.7497847 -9.2983246e-06 1.3829344e-38
-2.2465534 -3.7497847 -9.2983246e-06 1.3829344e-38
-2.2356615 -3.7497799 -7.1525574e-06 1.3829344e-38
-2.2247725 -3.7497799 -7.1525574e-06 1.3829344e-38
-2.2138834 -3.7497799 -7.1525574e-06 1.3829344e-38
-2.2029943 -3.7497799 -7.1525574e-06 1.3829344e-38
-2.1957347 -3.7497795 -7.0333481e-06 1.3829344e-38
-2.1848457 -3.7497795 -7.0333481e-06 1.3829344e-38
-2.1739566 -3.7497795 -7.0333481e-06 1.3829344e-38
-2.1666973 -3.7497795 -7.0333481e-06 1.3829344e-38
-2.1558082 -3.7497795 -7.0333481e-06 1.3829344e-38
-2.1449192 -3.7497795 -7.0333481e-06 1.3829344e-38
-2.1340301 -3.7497795 -7.0333481e-06 1.3829344e-38
-2.1231411 -3.7497795 -7.0333481e-06 1.3829344e-38
-2.1158817 -3.7497795 -7.0333481e-06 1.3829344e-38
-2.1049926 -3.7497795 -7.0333481e-06 1.3829344e-38
-2.0941036 -3.7497795 -7.0333481e-06 1.3829344e-38
-2.0868442 -3.7497795 -7.0333481e-06 1.3829344e-38
-2.0759552 -3.7497795 -7.0333481e-06 1.3829344e-38
-2.0650661 -3.7497795 -7.0333481e-06 1.3829344e-38
-2.0541782 -3.7497816 -7.9274178e-06 1.3829344e-38
-2.0432906 -3.7497838 -8.8214874e-06 1.3829344e-38
-2.0360312 -3.7497838 -8.8214874e-06 1.3829344e-38
-2.0251422 -3.7497838 -8.8214874e-06 1.3829344e-38
-2.0142531 -3.7497838 -8.8214874e-06 1.3829344e-38
-2.0069938 -3.7497838 -8.8214874e-06 1.3829344e-38
-1.9961048 -3.7497838 -8.8214874e-06 1.3829344e-38
-1.9852158 -3.7497838 -8.8214874e-06 1.3829344e-38
-1.9743266 -3.7497838 -8.8214874e-06 1.3829344e-38
-1.9634376 -3.7497838 -8.8214874e-06 1.3829344e-38
-1.9561782 -3.7497838 -8.8214874e-06 1.3829344e-38
-1.9452872 -3.7497802 -7.2717667e-06 1.3829344e-38
-1.9344003 -3.7497842 -9.059906e-06 1.3829344e-38
-1.9271407 -3.7497838 -8.8214874e-06 1.3829344e-38
-1.91625 -3.7497809 -7.5101852e-06 1.3829344e-38
-1.9053619 -3.7497826 -8.3446503e-06 1.3829344e-38
-1.8944727 -3.7497823 -8.2850456e-06 1.3829344e-38
-1.8835834 -3.7497818 -7.9870224e-06 1.3829344e-38
-1.8763238 -3.7497814 -7.7486038e-06 1.3829344e-38
-1.8654369 -3.7497854 -9.5367432e-06 1.3829344e-38
-1.854545 -3.7497799 -7.1525574e-06 1.3829344e-38
-1.8436556 -3.7497792 -6.9141388e-06 1.3829344e-38
-1.8327689 -3.7497838 -8.8214874e-06 1.3829344e-38
-1.8255093 -3.7497835 -8.7022781e-06 1.3829344e-38
-1.81462 -3.7497828 -8.4042549e-06 1.3829344e-38
-1.8037306 -3.7497821 -8.225441e-06 1.3829344e-38
-1.796471 -3.7497818 -7.9870224e-06 1.3829344e-38
-1.7855816 -3.7497811 -7.6293945e-06 1.3829344e-38
-1.7746923 -3.7497804 -7.390976e-06 1.3829344e-38
1.7388402 -3.7497826 -8.3446503e-06 1.3829344e-38
1.7460994 -3.7497821 -8.225441e-06 1.3829344e-38
1.7533598 -3.7497842 -9.059906e-06 1.3829344e-38
1.7642479 -3.7497823 -8.1658363e-06 1.3829344e-38
1.7751373 -3.749783 -8.4638596e-06 1.3829344e-38
1.7860265 -3.7497835 -8.7022781e-06 1.3829344e-38
1.7969147 -3.7497818 -7.9870224e-06 1.3829344e-38
1.8041749 -3.7497835 -8.7022781e-06 1.3829344e-38
1.8150638 -3.7497833 -8.5830688e-06 1.3829344e-38
1.8259524 -3.7497821 -8.225441e-06 1.3829344e-38
1.8332118 -3.7497821 -8.225441e-06 1.3829344e-38
1.8441017 -3.7497838 -8.8214874e-06 1.3829344e-38
1.8549892 -3.7497809 -7.5101852e-06 1.3829344e-38
1.8658792 -3.7497826 -8.3446503e-06 1.3829344e-38
1.8767693 -3.7497847 -9.2983246e-06 1.3829344e-38
1.8840271 -3.7497818 -7.9870224e-06 1.3829344e-38
1.894917 -3.7497835 -8.7022781e-06 1.3829344e-38
1.9058058 -3.749783 -8.4638596e-06 1.3829344e-38
1.9130636 -3.7497799 -7.1525574e-06 1.3829344e-38
1.9239519 -3.7497783 -6.4373016e-06 1.3829344e-38
1.934841 -3.7497785 -6.5565109e-06 1.3829344e-38
1.9457299 -3.7497783 -6.3180923e-06 1.3829344e-38
1.9566184 -3.7497773 -6.0796738e-06 1.3829344e-38
1.963879 -3.7497795 -7.0333481e-06 1.3829344e-38
1.9747671 -3.7497778 -6.1988831e-06 1.3829344e-38
1.9856566 -3.7497785 -6.5565109e-06 1.3829344e-38
1.9929155 -3.7497778 -6.1988831e-06 1.3829344e-38
2.0038052 -3.7497787 -6.6161156e-06 1.3829344e-38
2.0146945 -3.7497795 -7.0333481e-06 1.3829344e-38
2.0255833 -3.7497787 -6.5565109e-06 1.3829344e-38
2.0364721 -3.7497783 -6.3180923e-06 1.3829344e-38
2.0437312 -3.7497778 -6.1988831e-06 1.3829344e-38
2.0546212 -3.7497795 -6.9737434e-06 1.3829344e-38
2.0655084 -3.7497766 -5.6028366e-06 1.3829344e-38
2.0727689 -3.7497785 -6.5565109e-06 1.3829344e-38
2.0836582 -3.7497792 -6.8545341e-06 1.3829344e-38
2.0945463 -3.7497773 -6.0796738e-06 1.3829344e-38
2.1054363 -3.7497792 -6.9141388e-06 1.3829344e-38
2.1163251 -3.7497785 -6.5565109e-06 1.3829344e-38
2.1235845 -3.7497785 -6.5565109e-06 1.3829344e-38
2.1344738 -3.7497787 -6.6757202e-06 1.3829344e-38
2.1453631 -3.7497795 -7.0333481e-06 1.3829344e-38
2.1562512 -3.7497778 -6.1988831e-06 1.3829344e-38
2.1671405 -3.7497783 -6.3180923e-06 1.3829344e-38
2.174401 -3.7497804 -7.390976e-06 1.3829344e-38
2.1852894 -3.7497787 -6.6757202e-06 1.3829344e-38
2.1961784 -3.749779 -6.7949295e-06 1.3829344e-38
2.2034376 -3.7497785 -6.5565109e-06 1.3829344e-38
2.2143264 -3.7497783 -6.4373016e-06 1.3829344e-38
2.2252166 -3.7497804 -7.390976e-06 1.3829344e-38
2.2361045 -3.7497783 -6.4373016e-06 1.3829344e-38
2.2469938 -3.749779 -6.7949295e-06 1.3829344e-38
2.2542529 -3.7497785 -6.5565109e-06 1.3829344e-38
2.2651424 -3.7497792 -6.7949295e-06 1.3829344e-38
2.276032 -3.7497799 -7.1525574e-06 1.3829344e-38
2.2832909 -3.7497795 -7.0333481e-06 1.3829344e-38
2.2941794 -3.7497787 -6.6757202e-06 1.3829344e-38
2.3050683 -3.7497783 -6.3180923e-06 1.3829344e-38
2.3159585 -3.7497802 -7.2717667e-06 1.3829344e-38
2.3268456 -3.7497773 -6.0796738e-06 1.3829344e-38
2.3341062 -3.749779 -6.7949295e-06 1.3829344e-38
2.3413653 -3.7497785 -6.5565109e-06 1.3829344e-38
-2.2846656 -3.7318211 -7.2717667e-06 1.3829344e-38
-2.273819 -3.7318211 -7.2717667e-06 1.3829344e-38
-2.2665882 -3.7318211 -7.2717667e-06 1.3829344e-38
-2.2557416 -3.7318211 -7.2717667e-06 1.3829344e-38
-2.2448952 -3.7318211 -7.2717667e-06 1.3829344e-38
-2.2340488 -3.7318211 -7.2717667e-06 1.3829344e-38
-2.2232025 -3.7318211 -7.2717667e-06 1.3829344e-38
-2.2159717 -3.7318211 -7.2717667e-06 1.3829344e-38
-2.2051253 -3.7318211 -7.2717667e-06 1.3829344e-38
-2.194279 -3.7318211 -7.2717667e-06 1.3829344e-38
-2.1870477 -3.7318206 -7.0333481e-06 1.3829344e-38
-2.1762013 -3.7318206 -7.0333481e-06 1.3829344e-38
-2.165355 -3.7318206 -7.0333481e-06 1.3829344e-38
-2.1545086 -3.7318206 -7.0333481e-06 1.3829344e-38
-2.1436622 -3.7318206 -7.0333481e-06 1.3829344e-38
-2.1364312 -3.7318206 -7.0333481e-06 1.3829344e-38
-2.1255846 -3.7318206 -7.0333481e-06 1.3829344e-38
-2.1147385 -3.7318206 -7.0333481e-06 1.3829344e-38
-2.1038918 -3.7318206 -7.0333481e-06 1.3829344e-38
-2.0930457 -3.7318206 -7.0333481e-06 1.3829344e-38
-2.0858147 -3.7318206 -7.0333481e-06 1.3829344e-38
-2.0749683 -3.7318206 -7.0333481e-06 1.3829344e-38
-2.064122 -3.7318206 -7.0333481e-06 1.3829344e-38
-2.056891 -3.7318206 -7.0333481e-06 1.3829344e-38
-2.0460443 -3.7318203 -6.9141388e-06 1.3829344e-38
-2.035198 -3.7318201 -6.7949295e-06 1.3829344e-38
-2.0243516 -3.7318201 -6.7949295e-06 1.3829344e-38
-2.0135052 -3.7318201 -6.7949295e-06 1.3829344e-38
-2.0062742 -3.7318201 -6.7949295e-06 1.3829344e-38
-1.9954281 -3.7318201 -6.7949295e-06 1.3829344e-38
-1.9845816 -3.7318201 -6.7949295e-06 1.3829344e-38
-1.9737352 -3.7318201 -6.7949295e-06 1.3829344e-38
-1.9628888 -3.7318201 -6.7949295e-06 1.3829344e-38
-1.955658 -3.7318201 -6.7949295e-06 1.3829344e-38
-1.9448116 -3.7318201 -6.7949295e-06 1.3829344e-38
-1.9339652 -3.7318201 -6.7949295e-06 1.3829344e-38
-1.9267361 -3.7318234 -8.4638596e-06 1.3829344e-38
-1.9158878 -3.7318201 -6.7949295e-06 1.3829344e-38
-1.9050419 -3.7318211 -7.2717667e-06 1.3829344e-38
-1.8941963 -3.7318223 -7.8082085e-06 1.3829344e-38
-1.8833477 -3.7318182 -6.0796738e-06 1.3829344e-38
-1.8761173 -3.7318194 -6.4373016e-06 1.3829344e-38
-1.8652714 -3.7318203 -6.9141388e-06 1.3829344e-38
-1.8544257 -3.7318215 -7.390976e-06 1.3829344e-38
-1.8471949 -3.7318218 -7.6293945e-06 1.3829344e-38
-1.8363467 -3.7318182 -6.1392784e-06 1.3829344e-38
-1.8255032 -3.7318239 -8.7022781e-06 1.3829344e-38
-1.8146551 -3.7318206 -7.0333481e-06 1.3829344e-38
-1.8038092 -3.7318215 -7.390976e-06 1.3829344e-38
-1.7965763 -3.7318175 -5.7220459e-06 1.3829344e-38
-1.7857316 -3.7318211 -7.2717667e-06 1.3829344e-38
-1.7748846 -3.7318199 -6.5565109e-06 1.3829344e-38
1.7393446 -3.7318201 -6.7949295e-06 1.3829344e-38
1.7465769 -3.7318232 -8.225441e-06 1.3829344e-38
1.7538071 -3.7318215 -7.390976e-06 1.3829344e-38
1.7646534 -3.7318215 -7.390976e-06 1.3829344e-38
1.7754996 -3.7318211 -7.2717667e-06 1.3829344e-38
1.786346 -3.7318211 -7.212162e-06 1.3829344e-38
1.7971936 -3.7318234 -8.4638596e-06 1.3829344e-38
1.8044235 -3.7318215 -7.390976e-06 1.3829344e-38
1.8152699 -3.7318215 -7.390976e-06 1.3829344e-38
1.8261163 -3.7318215 -7.390976e-06 1.3829344e-38
1.8333477 -3.7318223 -7.8678131e-06 1.3829344e-38
1.8441932 -3.7318206 -7.0333481e-06 1.3829344e-38
1.8550402 -3.7318218 -7.6293945e-06 1.3829344e-38
1.8658866 -3.7318218 -7.6293945e-06 1.3829344e-38
1.8767328 -3.7318215 -7.390976e-06 1.3829344e-38
1.8839629 -3.7318199 -6.5565109e-06 1.3829344e-38
1.8948106 -3.7318225 -7.8082085e-06 1.3829344e-38
1.9056567 -3.7318218 -7.6293945e-06 1.3829344e-38
1.912887 -3.7318206 -7.0333481e-06 1.3829344e-38
1.9237344 -3.7318225 -7.9274178e-06 1.3829344e-38
1.9345797 -3.7318206 -7.0333481e-06 1.3829344e-38
1.9454271 -3.7318225 -7.8082085e-06 1.3829344e-38
1.9562734 -3.7318223 -7.8678131e-06 1.3829344e-38
1.9635035 -3.7318206 -7.0333481e-06 1.3829344e-38
1.9743505 -3.7318215 -7.5101852e-06 1.3829344e-38
1.985196 -3.7318201 -6.7949295e-06 1.3829344e-38
1.9960438 -3.7318225 -8.046627e-06 1.3829344e-38
2.0068901 -3.7318223 -7.8678131e-06 1.3829344e-38
2.0141213 -3.7318232 -8.225441e-06 1.3829344e-38
2.0249672 -3.731822 -7.6293945e-06 1.3829344e-38
2.0358129 -3.7318206 -7.0333481e-06 1.3829344e-38
2.0430455 -3.7318234 -8.4638596e-06 1.3829344e-38
2.0538902 -3.7318211 -7.212162e-06 1.3829344e-38
2.0647383 -3.7318234 -8.4638596e-06 1.3829344e-38
2.0755837 -3.731822 -7.7486038e-06 1.3829344e-38
2.0864294 -3.7318206 -7.0333481e-06 1.3829344e-38
2.093662 -3.7318234 -8.4638596e-06 1.3829344e-38
2.104507 -3.7318211 -7.3313713e-06 1.3829344e-38
2.1153548 -3.7318234 -8.4638596e-06 1.3829344e-38
2.1262002 -3.731822 -7.7486038e-06 1.3829344e-38
2.1370461 -3.7318211 -7.2717667e-06 1.3829344e-38
2.1442771 -3.7318215 -7.390976e-06 1.3829344e-38
2.1551237 -3.7318215 -7.4505806e-06 1.3829344e-38
2.1659715 -3.7318239 -8.7022781e-06 1.3829344e-38
2.1732011 -3.7318218 -7.6293945e-06 1.3829344e-38
2.1840482 -3.731823 -8.225441e-06 1.3829344e-38
2.1948938 -3.7318218 -7.6293945e-06 1.3829344e-38
2.2057402 -3.7318215 -7.5101852e-06 1.3829344e-38
2.2165878 -3.7318234 -8.4638596e-06 1.3829344e-38
2.2238178 -3.7318223 -7.8678131e-06 1.3829344e-38
2.2346642 -3.731822 -7.7486038e-06 1.3829344e-38
2.2455103 -3.7318218 -7.6293945e-06 1.3829344e-38
2.2563567 -3.731822 -7.6293945e-06 1.3829344e-38
2.2672045 -3.7318239 -8.7022781e-06 1.3829344e-38
2.2744348 -3.7318227 -7.9870224e-06 1.3829344e-38
2.2852807 -3.731822 -7.7486038e-06 1.3829344e-38
2.2961273 -3.7318223 -7.8678131e-06 1.3829344e-38
2.3033583 -3.7318227 -7.9870224e-06 1.3829344e-38
2.3142047 -3.7318225 -8.046627e-06 1.3829344e-38
2.3250508 -3.7318223 -7.8678131e-06 1.3829344e-38
2.3322811 -3.7318211 -7.2717667e-06 1.3829344e-38
-2.2756667 -3.7140048 -8.4638596e-06 1.3829344e-38
-2.2648628 -3.7140048 -8.4638596e-06 1.3829344e-38
-2.2540588 -3.7140045 -8.4042549e-06 1.3829344e-38
-2.2432544 -3.7140045 -8.3446503e-06 1.3829344e-38
-2.2360518 -3.7140045 -8.3446503e-06 1.3829344e-38
-2.2252479 -3.7140045 -8.3446503e-06 1.3829344e-38
-2.2144437 -3.7140045 -8.3446503e-06 1.3829344e-38
-2.2036395 -3.7140045 -8.3446503e-06 1.3829344e-38
-2.1928356 -3.7140045 -8.3446503e-06 1.3829344e-38
-2.1856327 -3.7140045 -8.3446503e-06 1.3829344e-38
-2.1748285 -3.7140043 -8.225441e-06 1.3829344e-38
-2.1640246 -3.7140043 -8.225441e-06 1.3829344e-38
-2.1568217 -3.7140043 -8.225441e-06 1.3829344e-38
-2.1460176 -3.7140043 -8.225441e-06 1.3829344e-38
-2.1352136 -3.7140043 -8.225441e-06 1.3829344e-38
-2.1244082 -3.7140019 -7.1525574e-06 1.3829344e-38
-2.1136055 -3.7140043 -8.225441e-06 1.3829344e-38
-2.1064026 -3.714004 -8.1062317e-06 1.3829344e-38
-2.0955987 -3.714004 -8.1062317e-06 1.3829344e-38
-2.0847945 -3.714004 -8.1062317e-06 1.3829344e-38
-2.0739903 -3.714004 -8.1062317e-06 1.3829344e-38
-2.0631864 -3.714004 -8.1062317e-06 1.3829344e-38
-2.0559835 -3.714004 -8.1062317e-06 1.3829344e-38
-2.0451794 -3.714004 -8.1062317e-06 1.3829344e-38
-2.0343754 -3.714004 -8.1062317e-06 1.3829344e-38
-2.0271726 -3.7140038 -7.9870224e-06 1.3829344e-38
-2.0163684 -3.7140038 -7.9870224e-06 1.3829344e-38
-2.0055645 -3.7140038 -7.9870224e-06 1.3829344e-38
-1.9947605 -3.7140038 -7.9870224e-06 1.3829344e-38
-1.9839565 -3.7140038 -7.9870224e-06 1.3829344e-38
-1.9767537 -3.7140038 -7.9870224e-06 1.3829344e-38
-1.9659497 -3.7140038 -7.9870224e-06 1.3829344e-38
-1.9551455 -3.7140036 -7.9870224e-06 1.3829344e-38
-1.9443414 -3.7140036 -7.9870224e-06 1.3829344e-38
-1.9335374 -3.7140036 -7.9870224e-06 1.3829344e-38
-1.9263346 -3.7140036 -7.9870224e-06 1.3829344e-38
-1.9155297 -3.7140021 -7.2717667e-06 1.3829344e-38
-1.9047259 -3.7140024 -7.5101852e-06 1.3829344e-38
-1.8939221 -3.7140031 -7.6889992e-06 1.3829344e-38
-1.8831184 -3.7140038 -7.9870224e-06 1.3829344e-38
-1.8759142 -3.7140009 -6.6757202e-06 1.3829344e-38
-1.8651104 -3.7140017 -6.9737434e-06 1.3829344e-38
-1.8543067 -3.7140019 -7.2717667e-06 1.3829344e-38
-1.8471049 -3.714004 -8.1062317e-06 1.3829344e-38
-1.8362999 -3.7140021 -7.3313713e-06 1.3829344e-38
-1.825495 -3.7140005 -6.5565109e-06 1.3829344e-38
-1.8146925 -3.7140036 -7.9274178e-06 1.3829344e-38
-1.8038875 -3.7140014 -7.0333481e-06 1.3829344e-38
-1.7966833 -3.7139988 -5.8412552e-06 1.3829344e-38
-1.7858808 -3.7140017 -7.0333481e-06 1.3829344e-38
-1.7750782 -3.714005 -8.5830688e-06 1.3829344e-38
1.7362461 -3.7140036 -7.9274178e-06 1.3829344e-38
1.7470495 -3.7140017 -7.1525574e-06 1.3829344e-38
1.754252 -3.7140012 -6.7949295e-06 1.3829344e-38
1.7650568 -3.7140031 -7.6889992e-06 1.3829344e-38
1.7758619 -3.714005 -8.5830688e-06 1.3829344e-38
1.7830633 -3.7140021 -7.2717667e-06 1.3829344e-38
1.7938681 -3.714004 -8.046627e-06 1.3829344e-38
1.8046719 -3.7140033 -7.8678131e-06 1.3829344e-38
1.8154757 -3.7140031 -7.6293945e-06 1.3829344e-38
1.8262805 -3.7140043 -8.225441e-06 1.3829344e-38
1.8334831 -3.714004 -8.1062317e-06 1.3829344e-38
1.8442863 -3.7140021 -7.3313713e-06 1.3829344e-38
1.8550906 -3.7140028 -7.5101852e-06 1.3829344e-38
1.865895 -3.7140033 -7.8678131e-06 1.3829344e-38
1.8766983 -3.7140014 -7.0333481e-06 1.3829344e-38
1.8839021 -3.7140038 -7.9870224e-06 1.3829344e-38
1.8947058 -3.7140031 -7.6889992e-06 1.3829344e-38
1.9055095 -3.7140024 -7.5101852e-06 1.3829344e-38
1.9163145 -3.7140045 -8.2850456e-06 1.3829344e-38
1.9271169 -3.7140009 -6.6757202e-06 1.3829344e-38
1.9343207 -3.7140033 -7.7486038e-06 1.3829344e-38
1.9451251 -3.714004 -8.046627e-06 1.3829344e-38
1.9559294 -3.7140043 -8.225441e-06 1.3829344e-38
1.9631306 -3.7140014 -6.9141388e-06 1.3829344e-38
1.9739358 -3.7140036 -7.8678131e-06 1.3829344e-38
1.9847409 -3.7140052 -8.7022781e-06 1.3829344e-38
1.995544 -3.7140033 -7.8082085e-06 1.3829344e-38
2.0063484 -3.714004 -8.1062317e-06 1.3829344e-38
2.0135508 -3.7140033 -7.8678131e-06 1.3829344e-38
2.0243545 -3.7140028 -7.6293945e-06 1.3829344e-38
2.0351596 -3.7140045 -8.3446503e-06 1.3829344e-38
2.0459628 -3.7140028 -7.6293945e-06 1.3829344e-38
2.056767 -3.7140033 -7.8678131e-06 1.3829344e-38
2.0639696 -3.7140031 -7.6293945e-06 1.3829344e-38
2.074774 -3.7140036 -7.9274178e-06 1.3829344e-38
2.0855787 -3.7140045 -8.3446503e-06 1.3829344e-38
2.0963821 -3.7140036 -7.9274178e-06 1.3829344e-38
2.1071858 -3.7140031 -7.6293945e-06 1.3829344e-38
2.1143882 -3.7140024 -7.5101852e-06 1.3829344e-38
2.1251936 -3.7140045 -8.2850456e-06 1.3829344e-38
2.1359971 -3.7140036 -7.9870224e-06 1.3829344e-38
2.1431997 -3.7140033 -7.8678131e-06 1.3829344e-38
2.1540041 -3.714004 -8.1062317e-06 1.3829344e-38
2.1648085 -3.7140045 -8.3446503e-06 1.3829344e-38
2.1756124 -3.714004 -8.1062317e-06 1.3829344e-38
2.1864161 -3.7140036 -7.9870224e-06 1.3829344e-38
2.1936197 -3.7140052 -8.7022781e-06 1.3829344e-38
2.2044227 -3.7140031 -7.7486038e-06 1.3829344e-38
2.2152271 -3.714004 -8.1062317e-06 1.3829344e-38
2.2260308 -3.7140036 -7.8678131e-06 1.3829344e-38
2.2368345 -3.7140028 -7.5101852e-06 1.3829344e-38
2.2440386 -3.714005 -8.5830688e-06 1.3829344e-38
2.2548423 -3.714004 -8.1658363e-06 1.3829344e-38
2.265646 -3.7140036 -7.9870224e-06 1.3829344e-38
2.2728484 -3.7140033 -7.7486038e-06 1.3829344e-38
2.283653 -3.714004 -8.1062317e-06 1.3829344e-38
2.2944572 -3.714004 -8.1062317e-06 1.3829344e-38
2.3052609 -3.7140036 -7.9274178e-06 1.3829344e-38
2.3160663 -3.7140055 -8.7022781e-06 1.3829344e-38
2.3232672 -3.7140028 -7.5101852e-06 1.3829344e-38
-2.2703187 -3.6963158 -4.6491623e-06 1.3829344e-38
-2.263144 -3.6963158 -4.6491623e-06 1.3829344e-38
-2.2559693 -3.6963158 -4.6491623e-06 1.3829344e-38
-2.2452087 -3.6963181 -5.7220459e-06 1.3829344e-38
-2.2344482 -3.6963205 -6.7949295e-06 1.3829344e-38
-2.2236862 -3.6963205 -6.7949295e-06 1.3829344e-38
-2.212924 -3.6963205 -6.7949295e-06 1.3829344e-38
